0.491922,0.495686,0.491922,0.488157,0.484392,0.480628,0.476863,0.473098,0.469333,0.465569,0.461804,0.458039,0.454275,0.450510,0.446745,0.442980,0.439216,0.439216,0.439216,0.439216,0.439216,0.439216,0.435451,0.431686,0.427922,0.424157,0.420392,0.414745,0.409098,0.403451,0.397804,0.392157,0.382745,0.373333,0.363922,0.354510,0.345098,0.335686,0.326274,0.316863,0.307451,0.298039,0.279216,0.260392,0.241569,0.222745,0.203922,0.190745,0.177568,0.164392,0.151216,0.138039,0.119216,0.100392,0.081569,0.062745,0.043921,0.225883,0.407844,0.589802,0.771764,0.953725,0.949961,0.946196,0.942431,0.938667,0.934902,0.929255,0.923608,0.917961,0.912314,0.906667,0.893490,0.880314,0.867137,0.853961,0.840784,0.818196,0.795607,0.773020,0.750431,0.727843,0.699608,0.671372,0.643137,0.614902,0.586666,0.554666,0.522666,0.490667,0.458667,0.426666,0.402196,0.377725,0.353255,0.328784,0.304314,0.276078,0.247843,0.219608,0.191372,0.163137,0.218981,0.274824,0.330667,0.386511,0.442354,0.429178,0.416001,0.402825,0.389648,0.376472,0.491296,0.606119,0.720941,0.835764,0.950588,0.939294,0.928000,0.916706,0.905412,0.894118,0.823215,0.752313,0.681412,0.610509,0.539607,0.571607,0.603607,0.635606,0.667607,0.699607,0.603607,0.507607,0.411608,0.315608,0.219608,0.319373,0.419138,0.518901,0.618666,0.718430,0.599842,0.481254,0.362667,0.244079,0.125491,0.121726,0.117961,0.114196,0.110432,0.106667,0.102902,0.099137,0.095373,0.091608,0.087843,0.106667,0.125491,0.144314,0.163137,0.181961,0.181961,0.181961,0.181961,0.181961,0.181961,0.191373,0.200785,0.210196,0.219608,0.229020,0.234667,0.240314,0.245961,0.251608,0.257255,0.232784,0.208314,0.183844,0.159373,0.134902,0.151843,0.168785,0.185726,0.202667,0.219608,0.244078,0.268550,0.293020,0.317491,0.341961,0.355137,0.368314,0.381490,0.394667,0.407843,0.449254,0.490667,0.532078,0.573491,0.614902,0.626196,0.637490,0.648784,0.660078,0.671372,0.669490,0.667608,0.665726,0.663843,0.661961,0.639373,0.616784,0.594196,0.571608,0.549020,0.528314,0.507608,0.486902,0.466196,0.445490,0.426667,0.407843,0.389020,0.370196,0.351373,0.332549,0.313725,0.294902,0.276078,0.257255,0.247843,0.238431,0.229020,0.219608,0.210196,0.206432,0.202667,0.198902,0.195137,0.191373,0.197020,0.202667,0.208314,0.213961,0.219608,0.261019,0.302432,0.343843,0.385255,0.426666,0.462431,0.498196,0.533960,0.569726,0.605490,0.633725,0.661961,0.690196,0.718432,0.746667,0.761725,0.776784,0.791843,0.806902,0.821961,0.840784,0.859608,0.878431,0.897255,0.916078,0.919843,0.923608,0.927372,0.931137,0.934902,0.925490,0.916078,0.906667,0.897255,0.887843,0.863373,0.838902,0.814431,0.789960,0.765490,0.735373,0.705255,0.675137,0.645019,0.614902,0.609255,0.603608,0.597961,0.592314,0.586667,0.590431,0.594196,0.597961,0.601726,0.605490,0.626196,0.646902,0.667608,0.688314,0.709020,0.729725,0.750432,0.771137,0.791843,0.812549,0.829490,0.846431,0.863372,0.880314,0.897255,0.839530,0.781803,0.724078,0.666351,0.608626,0.497569,0.386508,0.275451,0.164390,0.053333,0.070274,0.087216,0.104157,0.121098
0.465568,0.467451,0.465568,0.463686,0.461804,0.459921,0.458039,0.456157,0.454274,0.452392,0.450510,0.448627,0.446745,0.444863,0.442980,0.441098,0.439216,0.439216,0.439216,0.439216,0.439216,0.439216,0.437333,0.435451,0.433569,0.431686,0.429804,0.422275,0.414745,0.407216,0.399686,0.392157,0.382745,0.373333,0.363922,0.354510,0.345098,0.335686,0.326274,0.316863,0.307451,0.298039,0.279216,0.260392,0.241569,0.222745,0.203922,0.192627,0.181333,0.170039,0.158745,0.147451,0.128628,0.109804,0.090981,0.072157,0.053333,0.235295,0.417256,0.599214,0.781176,0.963137,0.961255,0.959373,0.957490,0.955608,0.953726,0.946196,0.938667,0.931138,0.923608,0.916079,0.904784,0.893490,0.882196,0.870902,0.859608,0.838902,0.818196,0.797491,0.776785,0.756079,0.727843,0.699608,0.671373,0.643138,0.614902,0.584785,0.554667,0.524550,0.494432,0.464314,0.437961,0.411608,0.385256,0.358903,0.332549,0.304314,0.276079,0.247844,0.219608,0.191373,0.205176,0.218980,0.232783,0.246586,0.260389,0.249095,0.237801,0.226507,0.215213,0.203919,0.357018,0.510117,0.663214,0.816313,0.969412,0.954353,0.939294,0.924236,0.909177,0.894118,0.853961,0.813805,0.773649,0.733492,0.693336,0.723453,0.753571,0.783688,0.813806,0.843924,0.709648,0.575373,0.441100,0.306824,0.172548,0.308706,0.444864,0.581020,0.717177,0.853335,0.698354,0.543372,0.388394,0.233412,0.078431,0.076548,0.074666,0.072784,0.070901,0.069019,0.067137,0.065254,0.063372,0.061490,0.059607,0.078431,0.097255,0.116078,0.134901,0.153725,0.153725,0.153725,0.153725,0.153725,0.153725,0.163137,0.172549,0.181960,0.191372,0.200784,0.208313,0.215843,0.223372,0.230902,0.238431,0.212078,0.185725,0.159372,0.133019,0.106666,0.119842,0.133019,0.146195,0.159372,0.172548,0.198901,0.225254,0.251607,0.277961,0.304313,0.325019,0.345725,0.366431,0.387137,0.407843,0.456784,0.505726,0.554667,0.603609,0.652550,0.658196,0.663844,0.669490,0.675138,0.680784,0.675137,0.669490,0.663843,0.658196,0.652549,0.631843,0.611137,0.590431,0.569725,0.549020,0.524549,0.500078,0.475608,0.451137,0.426666,0.407843,0.389019,0.370196,0.351372,0.332549,0.313725,0.294902,0.276078,0.257254,0.238431,0.229019,0.219607,0.210196,0.200784,0.191372,0.189490,0.187608,0.185725,0.183843,0.181961,0.189490,0.197020,0.204549,0.212079,0.219608,0.268548,0.317491,0.366431,0.415374,0.464314,0.496314,0.528314,0.560314,0.592315,0.624314,0.652549,0.680785,0.709020,0.737256,0.765490,0.782431,0.799373,0.816314,0.833256,0.850197,0.869020,0.887844,0.906667,0.925491,0.944314,0.946196,0.948079,0.949961,0.951843,0.953726,0.944314,0.934902,0.925491,0.916079,0.906667,0.880314,0.853961,0.827608,0.801255,0.774902,0.741020,0.707137,0.673255,0.639372,0.605490,0.597961,0.590431,0.582902,0.575372,0.567843,0.569725,0.571608,0.573490,0.575372,0.577254,0.601725,0.626196,0.650666,0.675137,0.699608,0.724078,0.748549,0.773019,0.797491,0.821961,0.835137,0.848314,0.861490,0.874667,0.887843,0.868393,0.848942,0.829492,0.810041,0.790591,0.639377,0.488157,0.336943,0.185724,0.034510,0.057097,0.079686,0.102274,0.124863
0.439216,0.439216,0.439216,0.439216,0.439216,0.439216,0.439216,0.439216,0.439216,0.439216,0.439216,0.439216,0.439216,0.439216,0.439216,0.439216,0.439216,0.439216,0.439216,0.439216,0.439216,0.439216,0.439216,0.439216,0.439216,0.439216,0.439216,0.429804,0.420392,0.410980,0.401569,0.392157,0.382745,0.373333,0.363922,0.354510,0.345098,0.335686,0.326274,0.316863,0.307451,0.298039,0.279216,0.260392,0.241569,0.222745,0.203922,0.194510,0.185098,0.175686,0.166275,0.156863,0.138039,0.119216,0.100392,0.081569,0.062745,0.244707,0.426668,0.608626,0.790588,0.972549,0.972549,0.972549,0.972549,0.972549,0.972549,0.963137,0.953725,0.944314,0.934902,0.925490,0.916078,0.906667,0.897255,0.887843,0.878431,0.859608,0.840784,0.821961,0.803137,0.784314,0.756078,0.727843,0.699608,0.671373,0.643137,0.614902,0.586666,0.558432,0.530196,0.501961,0.473725,0.445490,0.417255,0.389020,0.360784,0.332549,0.304314,0.276079,0.247843,0.219608,0.191372,0.163137,0.134902,0.106667,0.078431,0.069020,0.059608,0.050196,0.040784,0.031373,0.222746,0.414119,0.605489,0.796862,0.988235,0.969412,0.950588,0.931765,0.912941,0.894118,0.884706,0.875294,0.865882,0.856471,0.847059,0.875294,0.903530,0.931764,0.960000,0.988235,0.815686,0.643136,0.470590,0.298040,0.125490,0.298040,0.470590,0.643136,0.815686,0.988235,0.796862,0.605489,0.414119,0.222746,0.031373,0.031373,0.031373,0.031373,0.031373,0.031373,0.031373,0.031373,0.031373,0.031373,0.031373,0.050196,0.069020,0.087843,0.106667,0.125490,0.125490,0.125490,0.125490,0.125490,0.125490,0.134902,0.144314,0.153725,0.163137,0.172549,0.181961,0.191373,0.200784,0.210196,0.219608,0.191372,0.163137,0.134902,0.106667,0.078431,0.087843,0.097255,0.106667,0.116079,0.125490,0.153725,0.181961,0.210196,0.238432,0.266667,0.294902,0.323137,0.351372,0.379608,0.407843,0.464313,0.520785,0.577254,0.633726,0.690196,0.690196,0.690196,0.690196,0.690196,0.690196,0.680784,0.671372,0.661961,0.652549,0.643137,0.624314,0.605490,0.586667,0.567843,0.549020,0.520785,0.492549,0.464314,0.436078,0.407843,0.389020,0.370196,0.351373,0.332549,0.313725,0.294902,0.276078,0.257255,0.238431,0.219608,0.210196,0.200784,0.191373,0.181961,0.172549,0.172549,0.172549,0.172549,0.172549,0.172549,0.181961,0.191373,0.200784,0.210196,0.219608,0.276078,0.332549,0.389019,0.445491,0.501961,0.530196,0.558432,0.586666,0.614902,0.643137,0.671372,0.699608,0.727843,0.756079,0.784314,0.803137,0.821961,0.840784,0.859608,0.878431,0.897255,0.916079,0.934902,0.953726,0.972549,0.972549,0.972549,0.972549,0.972549,0.972549,0.963137,0.953725,0.944314,0.934902,0.925490,0.897255,0.869019,0.840785,0.812549,0.784314,0.746667,0.709019,0.671373,0.633725,0.596078,0.586667,0.577255,0.567843,0.558431,0.549020,0.549020,0.549020,0.549020,0.549020,0.549020,0.577254,0.605490,0.633725,0.661961,0.690196,0.718431,0.746667,0.774902,0.803138,0.831373,0.840784,0.850196,0.859608,0.869020,0.878431,0.897255,0.916079,0.934902,0.953726,0.972549,0.781179,0.589802,0.398433,0.207056,0.015686,0.043921,0.072157,0.100392,0.128628
0.429804,0.429804,0.426039,0.422275,0.418510,0.414745,0.410981,0.410981,0.410981,0.410981,0.410981,0.410981,0.414745,0.418510,0.422275,0.426039,0.429804,0.431686,0.433569,0.435451,0.437333,0.439216,0.439216,0.439216,0.439216,0.439216,0.439216,0.429804,0.420392,0.410980,0.401569,0.392157,0.382745,0.373333,0.363922,0.354510,0.345098,0.335686,0.326274,0.316863,0.307451,0.298039,0.279216,0.260392,0.241569,0.222745,0.203922,0.194510,0.185098,0.175686,0.166275,0.156863,0.139921,0.122980,0.106039,0.089098,0.072157,0.213962,0.355767,0.497569,0.639374,0.781179,0.819453,0.857728,0.896001,0.934275,0.972549,0.963137,0.953725,0.944314,0.934902,0.925490,0.916078,0.906667,0.897255,0.887843,0.878431,0.859608,0.840784,0.821961,0.803137,0.784314,0.756078,0.727843,0.699608,0.671373,0.643137,0.616784,0.590431,0.564079,0.537725,0.511372,0.481255,0.451137,0.421020,0.390902,0.360784,0.334431,0.308078,0.281726,0.255373,0.229019,0.200784,0.172549,0.144314,0.116078,0.087843,0.078431,0.069019,0.059608,0.050196,0.040784,0.192001,0.343218,0.494432,0.645649,0.796866,0.818198,0.839531,0.860864,0.882196,0.903529,0.892235,0.880941,0.869647,0.858353,0.847059,0.869647,0.892236,0.914824,0.937412,0.960000,0.823842,0.687685,0.551529,0.415371,0.279213,0.417254,0.555294,0.693332,0.831372,0.969412,0.818195,0.666978,0.515764,0.364547,0.213331,0.215213,0.217095,0.218978,0.220860,0.222742,0.222742,0.222742,0.222742,0.222742,0.222742,0.237801,0.252860,0.267919,0.282978,0.298037,0.298037,0.298037,0.298037,0.298037,0.298037,0.267292,0.236547,0.205803,0.175059,0.144314,0.153726,0.163138,0.172549,0.181961,0.191373,0.205176,0.218980,0.232783,0.246586,0.260389,0.231528,0.202665,0.173803,0.144940,0.116079,0.148078,0.180079,0.212078,0.244079,0.276078,0.306195,0.336314,0.366431,0.396549,0.426666,0.479372,0.532079,0.584784,0.637491,0.690196,0.688314,0.686431,0.684549,0.682667,0.680784,0.671373,0.661961,0.652549,0.643137,0.633726,0.616785,0.599843,0.582902,0.565961,0.549020,0.520785,0.492549,0.464314,0.436078,0.407843,0.385255,0.362667,0.340079,0.317490,0.294902,0.276079,0.257255,0.238432,0.219608,0.200785,0.193255,0.185726,0.178196,0.170667,0.163137,0.166902,0.170667,0.174431,0.178196,0.181961,0.197019,0.212078,0.227137,0.242196,0.257254,0.309959,0.362667,0.415372,0.468079,0.520784,0.547137,0.573490,0.599843,0.626196,0.652549,0.680784,0.709020,0.737255,0.765490,0.793725,0.810666,0.827608,0.844549,0.861490,0.878431,0.897255,0.916079,0.934902,0.953726,0.972549,0.972549,0.972549,0.972549,0.972549,0.972549,0.963137,0.953725,0.944314,0.934902,0.925490,0.897255,0.869019,0.840785,0.812549,0.784314,0.744785,0.705255,0.665726,0.626196,0.586667,0.581020,0.575373,0.569726,0.564078,0.558431,0.562196,0.565961,0.569725,0.573490,0.577254,0.601725,0.626196,0.650666,0.675137,0.699608,0.724078,0.748549,0.773019,0.797491,0.821961,0.829490,0.837020,0.844549,0.852079,0.859608,0.878431,0.897255,0.916079,0.934903,0.953726,0.802512,0.651292,0.500078,0.348858,0.197644,0.185724,0.173802,0.161882,0.149960
0.420392,0.420392,0.412863,0.405333,0.397804,0.390274,0.382745,0.382745,0.382745,0.382745,0.382745,0.382745,0.390274,0.397804,0.405333,0.412863,0.420392,0.424157,0.427922,0.431686,0.435451,0.439216,0.439216,0.439216,0.439216,0.439216,0.439216,0.429804,0.420392,0.410980,0.401569,0.392157,0.382745,0.373333,0.363922,0.354510,0.345098,0.335686,0.326274,0.316863,0.307451,0.298039,0.279216,0.260392,0.241569,0.222745,0.203922,0.194510,0.185098,0.175686,0.166275,0.156863,0.141804,0.126745,0.111686,0.096628,0.081569,0.183216,0.284863,0.386508,0.488155,0.589802,0.666352,0.742902,0.819450,0.895999,0.972549,0.963137,0.953725,0.944314,0.934902,0.925490,0.916078,0.906667,0.897255,0.887843,0.878431,0.859608,0.840784,0.821961,0.803137,0.784314,0.756078,0.727843,0.699608,0.671373,0.643137,0.618667,0.594196,0.569726,0.545255,0.520784,0.488784,0.456784,0.424785,0.392784,0.360784,0.336314,0.311843,0.287373,0.262902,0.238431,0.210196,0.181961,0.153726,0.125490,0.097255,0.087843,0.078431,0.069020,0.059608,0.050196,0.161255,0.272314,0.383371,0.494430,0.605489,0.666979,0.728470,0.789960,0.851451,0.912941,0.899765,0.886588,0.873412,0.860235,0.847059,0.864000,0.880941,0.897882,0.914823,0.931764,0.832000,0.732235,0.632472,0.532707,0.432942,0.536472,0.640001,0.743529,0.847059,0.950588,0.839529,0.728470,0.617413,0.506354,0.395296,0.399060,0.402825,0.406590,0.410354,0.414119,0.414119,0.414119,0.414119,0.414119,0.414119,0.425413,0.436707,0.448001,0.459295,0.470590,0.470590,0.470590,0.470590,0.470590,0.470590,0.399687,0.328784,0.257883,0.186981,0.116078,0.125490,0.134902,0.144313,0.153725,0.163137,0.218981,0.274824,0.330667,0.386511,0.442354,0.375218,0.308079,0.240942,0.173803,0.106667,0.142431,0.178196,0.213961,0.249726,0.285490,0.317490,0.349491,0.381490,0.413491,0.445490,0.494431,0.543373,0.592313,0.641256,0.690196,0.686431,0.682667,0.678902,0.675137,0.671372,0.661961,0.652549,0.643137,0.633725,0.624314,0.609255,0.594196,0.579137,0.564078,0.549020,0.520785,0.492549,0.464314,0.436078,0.407843,0.381491,0.355137,0.328784,0.302431,0.276078,0.257255,0.238431,0.219608,0.200784,0.181961,0.176314,0.170667,0.165020,0.159372,0.153725,0.161255,0.168784,0.176314,0.183843,0.191373,0.212078,0.232785,0.253490,0.274197,0.294902,0.343843,0.392785,0.441725,0.490668,0.539608,0.564078,0.588549,0.613020,0.637491,0.661961,0.690196,0.718432,0.746667,0.774902,0.803137,0.818196,0.833255,0.848314,0.863373,0.878431,0.897255,0.916079,0.934902,0.953726,0.972549,0.972549,0.972549,0.972549,0.972549,0.972549,0.963137,0.953725,0.944314,0.934902,0.925490,0.897255,0.869019,0.840785,0.812549,0.784314,0.742903,0.701490,0.660079,0.618666,0.577255,0.575373,0.573490,0.571608,0.569726,0.567843,0.575373,0.582902,0.590431,0.597961,0.605490,0.626196,0.646902,0.667608,0.688314,0.709020,0.729725,0.750432,0.771137,0.791843,0.812549,0.818196,0.823843,0.829490,0.835137,0.840784,0.859607,0.878431,0.897255,0.916079,0.934902,0.823845,0.712784,0.601727,0.490666,0.379609,0.327531,0.275451,0.223373,0.171293
0.410980,0.410980,0.399686,0.388392,0.377098,0.365804,0.354510,0.354510,0.354510,0.354510,0.354510,0.354510,0.365804,0.377098,0.388392,0.399686,0.410980,0.416628,0.422275,0.427922,0.433569,0.439216,0.439216,0.439216,0.439216,0.439216,0.439216,0.429804,0.420392,0.410980,0.401569,0.392157,0.382745,0.373333,0.363922,0.354510,0.345098,0.335686,0.326274,0.316863,0.307451,0.298039,0.279216,0.260392,0.241569,0.222745,0.203922,0.194510,0.185098,0.175686,0.166275,0.156863,0.143686,0.130510,0.117333,0.104157,0.090980,0.152471,0.213962,0.275451,0.336942,0.398433,0.513257,0.628080,0.742902,0.857725,0.972549,0.963137,0.953725,0.944314,0.934902,0.925490,0.916078,0.906667,0.897255,0.887843,0.878431,0.859608,0.840784,0.821961,0.803137,0.784314,0.756078,0.727843,0.699608,0.671373,0.643137,0.620549,0.597961,0.575373,0.552784,0.530196,0.496314,0.462431,0.428549,0.394667,0.360784,0.338196,0.315608,0.293020,0.270431,0.247843,0.219608,0.191372,0.163137,0.134902,0.106667,0.097255,0.087843,0.078431,0.069020,0.059608,0.130510,0.201413,0.272314,0.343217,0.414119,0.515766,0.617413,0.719059,0.820706,0.922353,0.907294,0.892235,0.877177,0.862118,0.847059,0.858353,0.869647,0.880941,0.892235,0.903530,0.840157,0.776783,0.713412,0.650039,0.586665,0.655686,0.724706,0.793725,0.862745,0.931765,0.860862,0.789960,0.719059,0.648156,0.577254,0.582901,0.588548,0.594195,0.599842,0.605489,0.605489,0.605489,0.605489,0.605489,0.605489,0.613018,0.620548,0.628077,0.635606,0.643136,0.643136,0.643136,0.643136,0.643136,0.643136,0.532077,0.421018,0.309961,0.198902,0.087843,0.097255,0.106667,0.116079,0.125490,0.134902,0.232785,0.330667,0.428548,0.526430,0.624312,0.518902,0.413489,0.308079,0.202665,0.097255,0.136784,0.176314,0.215843,0.255373,0.294902,0.328784,0.362667,0.396549,0.430432,0.464314,0.509489,0.554667,0.599843,0.645020,0.690196,0.684549,0.678902,0.673255,0.667608,0.661961,0.652549,0.643137,0.633726,0.624314,0.614902,0.601726,0.588549,0.575373,0.562196,0.549020,0.520785,0.492549,0.464314,0.436078,0.407843,0.377726,0.347608,0.317491,0.287372,0.257255,0.238432,0.219608,0.200785,0.181961,0.163137,0.159373,0.155608,0.151843,0.148078,0.144314,0.155608,0.166902,0.178196,0.189490,0.200784,0.227137,0.253490,0.279843,0.306196,0.332549,0.377725,0.422902,0.468078,0.513255,0.558431,0.581019,0.603608,0.626196,0.648785,0.671372,0.699607,0.727843,0.756078,0.784314,0.812549,0.825725,0.838902,0.852078,0.865255,0.878431,0.897255,0.916079,0.934902,0.953726,0.972549,0.972549,0.972549,0.972549,0.972549,0.972549,0.963137,0.953725,0.944314,0.934902,0.925490,0.897255,0.869019,0.840785,0.812549,0.784314,0.741020,0.697725,0.654432,0.611137,0.567843,0.569726,0.571608,0.573490,0.575373,0.577255,0.588549,0.599843,0.611137,0.622431,0.633725,0.650666,0.667608,0.684549,0.701490,0.718431,0.735372,0.752314,0.769255,0.786196,0.803137,0.806902,0.810667,0.814431,0.818196,0.821961,0.840784,0.859608,0.878431,0.897255,0.916079,0.845177,0.774273,0.703372,0.632468,0.561567,0.469334,0.377097,0.284863,0.192626
0.401568,0.401568,0.386510,0.371451,0.356392,0.341333,0.326274,0.326274,0.326274,0.326274,0.326274,0.326274,0.341333,0.356392,0.371451,0.386510,0.401568,0.409098,0.416627,0.424157,0.431686,0.439216,0.439216,0.439216,0.439216,0.439216,0.439216,0.429804,0.420392,0.410980,0.401569,0.392157,0.382745,0.373333,0.363922,0.354510,0.345098,0.335686,0.326274,0.316863,0.307451,0.298039,0.279216,0.260392,0.241569,0.222745,0.203922,0.194510,0.185098,0.175686,0.166275,0.156863,0.145569,0.134274,0.122981,0.111686,0.100392,0.121725,0.143058,0.164390,0.185723,0.207056,0.360155,0.513254,0.666351,0.819450,0.972549,0.963137,0.953725,0.944314,0.934902,0.925490,0.916078,0.906667,0.897255,0.887843,0.878431,0.859608,0.840784,0.821961,0.803137,0.784314,0.756078,0.727843,0.699608,0.671373,0.643137,0.622431,0.601725,0.581020,0.560314,0.539608,0.503843,0.468078,0.432314,0.396549,0.360784,0.340078,0.319372,0.298667,0.277961,0.257255,0.229020,0.200784,0.172549,0.144314,0.116079,0.106667,0.097255,0.087843,0.078432,0.069020,0.099764,0.130509,0.161253,0.191998,0.222742,0.364547,0.506352,0.648155,0.789960,0.931765,0.914824,0.897882,0.880941,0.864000,0.847059,0.852706,0.858353,0.864000,0.869647,0.875294,0.848314,0.821334,0.794354,0.767374,0.740395,0.774904,0.809413,0.843922,0.878431,0.912941,0.882196,0.851452,0.820708,0.789963,0.759218,0.766748,0.774277,0.781807,0.789336,0.796866,0.796866,0.796866,0.796866,0.796866,0.796866,0.800630,0.804395,0.808160,0.811924,0.815689,0.815689,0.815689,0.815689,0.815689,0.815689,0.664472,0.513255,0.362041,0.210824,0.059607,0.069019,0.078431,0.087843,0.097254,0.106666,0.246589,0.386512,0.526432,0.666355,0.806277,0.662593,0.518902,0.375218,0.231528,0.087843,0.131137,0.174432,0.217725,0.261020,0.304314,0.340078,0.375844,0.411608,0.447373,0.483138,0.524549,0.565961,0.607372,0.648785,0.690196,0.682667,0.675137,0.667608,0.660078,0.652549,0.643137,0.633725,0.624314,0.614902,0.605490,0.594196,0.582902,0.571608,0.560314,0.549020,0.520785,0.492549,0.464314,0.436078,0.407843,0.373961,0.340078,0.306196,0.272313,0.238431,0.219608,0.200784,0.181961,0.163137,0.144313,0.142431,0.140549,0.138666,0.136784,0.134902,0.149960,0.165020,0.180078,0.195138,0.210196,0.242196,0.274197,0.306196,0.338197,0.370197,0.411608,0.453020,0.494431,0.535844,0.577255,0.597961,0.618667,0.639373,0.660079,0.680784,0.709019,0.737255,0.765490,0.793726,0.821961,0.833255,0.844549,0.855843,0.867137,0.878431,0.897255,0.916079,0.934902,0.953726,0.972549,0.972549,0.972549,0.972549,0.972549,0.972549,0.963137,0.953725,0.944314,0.934902,0.925490,0.897255,0.869019,0.840785,0.812549,0.784314,0.739138,0.693960,0.648785,0.603607,0.558431,0.564078,0.569726,0.575373,0.581020,0.586667,0.601725,0.616785,0.631843,0.646903,0.661961,0.675137,0.688314,0.701490,0.714667,0.727843,0.741019,0.754196,0.767372,0.780549,0.793725,0.795608,0.797490,0.799372,0.801255,0.803137,0.821960,0.840784,0.859607,0.878431,0.897255,0.866511,0.835765,0.805021,0.774276,0.743532,0.611141,0.478746,0.346355,0.213959
0.392157,0.392157,0.373333,0.354510,0.335686,0.316863,0.298039,0.298039,0.298039,0.298039,0.298039,0.298039,0.316863,0.335686,0.354510,0.373333,0.392157,0.401569,0.410980,0.420392,0.429804,0.439216,0.439216,0.439216,0.439216,0.439216,0.439216,0.429804,0.420392,0.410980,0.401569,0.392157,0.382745,0.373333,0.363922,0.354510,0.345098,0.335686,0.326274,0.316863,0.307451,0.298039,0.279216,0.260392,0.241569,0.222745,0.203922,0.194510,0.185098,0.175686,0.166275,0.156863,0.147451,0.138039,0.128628,0.119216,0.109804,0.090980,0.072157,0.053333,0.034510,0.015686,0.207060,0.398433,0.589802,0.781176,0.972549,0.963137,0.953725,0.944314,0.934902,0.925490,0.916078,0.906667,0.897255,0.887843,0.878431,0.859608,0.840784,0.821961,0.803137,0.784314,0.756078,0.727843,0.699608,0.671373,0.643137,0.624314,0.605490,0.586667,0.567843,0.549020,0.511372,0.473725,0.436079,0.398432,0.360784,0.341961,0.323137,0.304314,0.285490,0.266667,0.238431,0.210196,0.181961,0.153726,0.125490,0.116078,0.106667,0.097255,0.087843,0.078431,0.069020,0.059608,0.050196,0.040784,0.031373,0.213334,0.395296,0.577254,0.759215,0.941176,0.922353,0.903529,0.884706,0.865882,0.847059,0.847059,0.847059,0.847059,0.847059,0.847059,0.856471,0.865882,0.875294,0.884706,0.894118,0.894118,0.894118,0.894118,0.894118,0.894118,0.903529,0.912941,0.922353,0.931765,0.941176,0.950588,0.960000,0.969412,0.978823,0.988235,0.988235,0.988235,0.988235,0.988235,0.988235,0.988235,0.988235,0.988235,0.988235,0.988235,0.988235,0.988235,0.988235,0.988235,0.988235,0.796862,0.605489,0.414119,0.222746,0.031373,0.040784,0.050196,0.059608,0.069020,0.078431,0.260393,0.442354,0.624312,0.806274,0.988235,0.806277,0.624312,0.442354,0.260389,0.078431,0.125489,0.172549,0.219607,0.266667,0.313725,0.351372,0.389020,0.426666,0.464314,0.501961,0.539607,0.577255,0.614902,0.652550,0.690196,0.680784,0.671372,0.661961,0.652549,0.643137,0.633726,0.624314,0.614902,0.605490,0.596078,0.586667,0.577255,0.567843,0.558431,0.549020,0.520785,0.492549,0.464314,0.436078,0.407843,0.370197,0.332549,0.294902,0.257254,0.219608,0.200785,0.181961,0.163137,0.144313,0.125490,0.125490,0.125490,0.125490,0.125490,0.125490,0.144313,0.163137,0.181961,0.200785,0.219608,0.257254,0.294902,0.332549,0.370197,0.407843,0.445490,0.483138,0.520784,0.558432,0.596078,0.614902,0.633726,0.652549,0.671373,0.690196,0.718431,0.746667,0.774902,0.803138,0.831373,0.840784,0.850196,0.859608,0.869020,0.878431,0.897255,0.916079,0.934902,0.953726,0.972549,0.972549,0.972549,0.972549,0.972549,0.972549,0.963137,0.953725,0.944314,0.934902,0.925490,0.897255,0.869019,0.840785,0.812549,0.784314,0.737256,0.690196,0.643138,0.596078,0.549020,0.558431,0.567843,0.577255,0.586667,0.596078,0.614902,0.633726,0.652549,0.671373,0.690196,0.699608,0.709020,0.718431,0.727843,0.737255,0.746667,0.756079,0.765490,0.774902,0.784314,0.784314,0.784314,0.784314,0.784314,0.784314,0.803137,0.821961,0.840784,0.859608,0.878431,0.887843,0.897255,0.906667,0.916079,0.925490,0.752944,0.580391,0.407844,0.235291
0.373334,0.373334,0.356392,0.339451,0.322510,0.305569,0.288628,0.292392,0.296157,0.299922,0.303686,0.307451,0.320627,0.333804,0.346981,0.360157,0.373334,0.384628,0.395922,0.407216,0.418510,0.429804,0.429804,0.429804,0.429804,0.429804,0.429804,0.422275,0.414745,0.407216,0.399686,0.392157,0.382745,0.373333,0.363922,0.354510,0.345098,0.333804,0.322510,0.311216,0.299922,0.288628,0.271686,0.254745,0.237804,0.220863,0.203922,0.194510,0.185098,0.175686,0.166275,0.156863,0.145569,0.134274,0.122981,0.111686,0.100392,0.121725,0.143058,0.164390,0.185723,0.207056,0.358273,0.509490,0.660704,0.811921,0.963137,0.951843,0.940549,0.929255,0.917961,0.906667,0.897255,0.887843,0.878432,0.869020,0.859608,0.840785,0.821961,0.803138,0.784314,0.765490,0.737255,0.709020,0.680785,0.652549,0.624314,0.603608,0.582902,0.562197,0.541491,0.520785,0.488785,0.456784,0.424785,0.392785,0.360784,0.340078,0.319372,0.298667,0.277961,0.257255,0.232784,0.208314,0.183843,0.159373,0.134902,0.123608,0.112314,0.101020,0.089726,0.078431,0.069020,0.059608,0.050196,0.040784,0.031373,0.215216,0.399060,0.582900,0.766744,0.950588,0.931764,0.912941,0.894118,0.875294,0.856470,0.854588,0.852706,0.850823,0.848941,0.847059,0.854588,0.862118,0.869647,0.877177,0.884706,0.884706,0.884706,0.884706,0.884706,0.884706,0.894118,0.903530,0.912941,0.922353,0.931765,0.941177,0.950588,0.960000,0.969412,0.978824,0.978824,0.978824,0.978824,0.978824,0.978824,0.976941,0.975059,0.973177,0.971294,0.969412,0.969412,0.969412,0.969412,0.969412,0.969412,0.818195,0.666978,0.515764,0.364547,0.213331,0.222742,0.232154,0.241566,0.250978,0.260389,0.405959,0.551529,0.697096,0.842666,0.988235,0.808160,0.628077,0.448001,0.267919,0.087843,0.131137,0.174432,0.217725,0.261020,0.304314,0.340078,0.375844,0.411608,0.447373,0.483138,0.513255,0.543373,0.573491,0.603609,0.633726,0.628079,0.622432,0.616785,0.611138,0.605491,0.597961,0.590432,0.582903,0.575373,0.567844,0.562197,0.556549,0.550902,0.545255,0.539608,0.509491,0.479373,0.449255,0.419137,0.389020,0.353256,0.317490,0.281726,0.245960,0.210196,0.198902,0.187608,0.176314,0.165019,0.153725,0.151843,0.149960,0.148078,0.146196,0.144313,0.166901,0.189490,0.212078,0.234666,0.257254,0.293019,0.328784,0.364548,0.400314,0.436078,0.469960,0.503843,0.537725,0.571608,0.605490,0.624313,0.643137,0.661960,0.680784,0.699608,0.727843,0.756079,0.784313,0.812549,0.840784,0.850196,0.859608,0.869019,0.878431,0.887843,0.901019,0.914196,0.927373,0.940549,0.953726,0.955608,0.957490,0.959373,0.961255,0.963137,0.951843,0.940549,0.929255,0.917961,0.906667,0.878432,0.850196,0.821961,0.793725,0.765490,0.720315,0.675137,0.629961,0.584784,0.539608,0.547137,0.554667,0.562196,0.569726,0.577255,0.599843,0.622432,0.645020,0.667608,0.690196,0.699608,0.709020,0.718431,0.727843,0.737255,0.742902,0.748549,0.754196,0.759843,0.765490,0.765490,0.765490,0.765490,0.765490,0.765490,0.786196,0.806902,0.827608,0.848314,0.869020,0.880314,0.891608,0.902902,0.914196,0.925490,0.751062,0.576626,0.402197,0.227762
0.354510,0.354510,0.339451,0.324392,0.309333,0.294274,0.279216,0.286745,0.294274,0.301804,0.309333,0.316863,0.324392,0.331922,0.339451,0.346980,0.354510,0.367686,0.380863,0.394039,0.407216,0.420392,0.420392,0.420392,0.420392,0.420392,0.420392,0.414745,0.409098,0.403451,0.397804,0.392157,0.382745,0.373333,0.363922,0.354510,0.345098,0.331922,0.318745,0.305569,0.292392,0.279216,0.264157,0.249098,0.234039,0.218980,0.203922,0.194510,0.185098,0.175686,0.166275,0.156863,0.143686,0.130510,0.117333,0.104157,0.090980,0.152471,0.213962,0.275451,0.336942,0.398433,0.509492,0.620551,0.731608,0.842666,0.953725,0.940549,0.927372,0.914196,0.901020,0.887843,0.878431,0.869019,0.859608,0.850196,0.840784,0.821961,0.803137,0.784314,0.765490,0.746667,0.718431,0.690196,0.661961,0.633725,0.605490,0.582902,0.560313,0.537725,0.515137,0.492549,0.466196,0.439843,0.413490,0.387137,0.360784,0.338196,0.315608,0.293020,0.270431,0.247843,0.227137,0.206431,0.185726,0.165020,0.144314,0.131137,0.117961,0.104784,0.091608,0.078431,0.069020,0.059608,0.050196,0.040784,0.031373,0.217099,0.402825,0.588548,0.774274,0.960000,0.941176,0.922353,0.903530,0.884706,0.865882,0.862118,0.858353,0.854588,0.850824,0.847059,0.852706,0.858353,0.864000,0.869647,0.875294,0.875294,0.875294,0.875294,0.875294,0.875294,0.884706,0.894118,0.903529,0.912941,0.922353,0.931765,0.941176,0.950588,0.960000,0.969412,0.969412,0.969412,0.969412,0.969412,0.969412,0.965647,0.961882,0.958118,0.954353,0.950588,0.950588,0.950588,0.950588,0.950588,0.950588,0.839529,0.728470,0.617413,0.506354,0.395296,0.404707,0.414119,0.423531,0.432943,0.442354,0.551531,0.660708,0.769882,0.879059,0.988235,0.810042,0.631842,0.453648,0.275448,0.097255,0.136784,0.176314,0.215843,0.255373,0.294902,0.328784,0.362667,0.396549,0.430432,0.464314,0.486901,0.509490,0.532078,0.554667,0.577254,0.575372,0.573490,0.571608,0.569725,0.567843,0.562196,0.556549,0.550902,0.545255,0.539608,0.537725,0.535843,0.533961,0.532078,0.530196,0.498196,0.466196,0.434196,0.402195,0.370196,0.336314,0.302431,0.268549,0.234666,0.200784,0.197020,0.193255,0.189490,0.185726,0.181961,0.178196,0.174432,0.170667,0.166902,0.163137,0.189490,0.215844,0.242196,0.268550,0.294902,0.328784,0.362667,0.396549,0.430432,0.464314,0.494431,0.524549,0.554667,0.584785,0.614902,0.633725,0.652549,0.671372,0.690196,0.709020,0.737255,0.765490,0.793725,0.821961,0.850196,0.859608,0.869020,0.878431,0.887843,0.897255,0.904784,0.912314,0.919843,0.927373,0.934902,0.938666,0.942431,0.946196,0.949961,0.953725,0.940549,0.927372,0.914196,0.901019,0.887843,0.859608,0.831372,0.803137,0.774901,0.746667,0.703373,0.660078,0.616785,0.573489,0.530196,0.535843,0.541490,0.547137,0.552784,0.558431,0.584784,0.611137,0.637490,0.663844,0.690196,0.699608,0.709020,0.718431,0.727843,0.737255,0.739137,0.741020,0.742902,0.744784,0.746667,0.746667,0.746667,0.746667,0.746667,0.746667,0.769254,0.791843,0.814431,0.837020,0.859608,0.872784,0.885961,0.899137,0.912314,0.925490,0.749179,0.572861,0.396550,0.220233
0.335686,0.335686,0.322510,0.309333,0.296157,0.282981,0.269804,0.281098,0.292392,0.303686,0.314980,0.326274,0.328157,0.330039,0.331922,0.333804,0.335686,0.350745,0.365804,0.380863,0.395922,0.410980,0.410980,0.410980,0.410980,0.410980,0.410980,0.407216,0.403451,0.399686,0.395922,0.392157,0.382745,0.373333,0.363922,0.354510,0.345098,0.330039,0.314980,0.299922,0.284863,0.269804,0.256627,0.243451,0.230275,0.217098,0.203922,0.194510,0.185098,0.175686,0.166275,0.156863,0.141804,0.126745,0.111686,0.096628,0.081569,0.183216,0.284863,0.386508,0.488155,0.589802,0.660705,0.731608,0.802509,0.873411,0.944314,0.929255,0.914196,0.899137,0.884079,0.869020,0.859608,0.850196,0.840785,0.831373,0.821961,0.803137,0.784314,0.765490,0.746667,0.727843,0.699608,0.671372,0.643138,0.614902,0.586667,0.562196,0.537725,0.513255,0.488785,0.464314,0.443608,0.422902,0.402196,0.381490,0.360784,0.336314,0.311843,0.287373,0.262902,0.238431,0.221490,0.204549,0.187608,0.170667,0.153725,0.138667,0.123608,0.108549,0.093490,0.078431,0.069020,0.059608,0.050196,0.040784,0.031373,0.218981,0.406590,0.594195,0.781803,0.969412,0.950588,0.931764,0.912941,0.894118,0.875294,0.869647,0.864000,0.858353,0.852706,0.847059,0.850824,0.854588,0.858353,0.862118,0.865882,0.865882,0.865882,0.865882,0.865882,0.865882,0.875294,0.884706,0.894118,0.903529,0.912941,0.922353,0.931765,0.941176,0.950588,0.960000,0.960000,0.960000,0.960000,0.960000,0.960000,0.954353,0.948706,0.943059,0.937412,0.931765,0.931765,0.931765,0.931765,0.931765,0.931765,0.860862,0.789960,0.719059,0.648156,0.577254,0.586665,0.596077,0.605489,0.614901,0.624312,0.697097,0.769882,0.842666,0.915450,0.988235,0.811924,0.635606,0.459295,0.282978,0.106667,0.142431,0.178196,0.213961,0.249726,0.285490,0.317490,0.349491,0.381490,0.413491,0.445490,0.460549,0.475608,0.490667,0.505726,0.520785,0.522667,0.524549,0.526432,0.528314,0.530196,0.526432,0.522667,0.518902,0.515137,0.511373,0.513255,0.515137,0.517020,0.518902,0.520784,0.486903,0.453019,0.419138,0.385255,0.351373,0.319373,0.287372,0.255373,0.223372,0.191373,0.195137,0.198902,0.202667,0.206431,0.210196,0.204549,0.198902,0.193255,0.187608,0.181961,0.212078,0.242196,0.272313,0.302432,0.332549,0.364548,0.396549,0.428549,0.460549,0.492549,0.518901,0.545255,0.571608,0.597961,0.624314,0.643137,0.661961,0.680784,0.699608,0.718431,0.746666,0.774902,0.803137,0.831373,0.859608,0.869019,0.878431,0.887843,0.897255,0.906667,0.908549,0.910431,0.912314,0.914196,0.916079,0.921726,0.927373,0.933020,0.938667,0.944314,0.929255,0.914196,0.899137,0.884078,0.869020,0.840785,0.812549,0.784314,0.756078,0.727843,0.686432,0.645019,0.603608,0.562196,0.520784,0.524549,0.528314,0.532079,0.535843,0.539608,0.569725,0.599843,0.629961,0.660079,0.690196,0.699608,0.709020,0.718431,0.727843,0.737255,0.735373,0.733490,0.731608,0.729726,0.727843,0.727843,0.727843,0.727843,0.727843,0.727843,0.752313,0.776785,0.801255,0.825726,0.850196,0.865255,0.880314,0.895372,0.910432,0.925490,0.747297,0.569097,0.390903,0.212703
0.316862,0.316862,0.305568,0.294274,0.282980,0.271686,0.260392,0.275451,0.290510,0.305569,0.320627,0.335686,0.331922,0.328157,0.324392,0.320627,0.316862,0.333804,0.350745,0.367686,0.384627,0.401568,0.401568,0.401568,0.401568,0.401568,0.401568,0.399686,0.397804,0.395922,0.394039,0.392157,0.382745,0.373333,0.363922,0.354510,0.345098,0.328157,0.311215,0.294275,0.277333,0.260392,0.249098,0.237804,0.226510,0.215216,0.203922,0.194510,0.185098,0.175686,0.166275,0.156863,0.139921,0.122980,0.106039,0.089098,0.072157,0.213962,0.355767,0.497569,0.639374,0.781179,0.811924,0.842669,0.873413,0.904157,0.934902,0.917961,0.901019,0.884078,0.867137,0.850196,0.840784,0.831372,0.821961,0.812549,0.803137,0.784313,0.765490,0.746667,0.727843,0.709019,0.680784,0.652549,0.624314,0.596078,0.567843,0.541490,0.515137,0.488784,0.462431,0.436078,0.421019,0.405960,0.390902,0.375843,0.360784,0.334431,0.308078,0.281726,0.255373,0.229019,0.215843,0.202667,0.189490,0.176314,0.163137,0.146196,0.129255,0.112314,0.095373,0.078431,0.069020,0.059608,0.050196,0.040784,0.031373,0.220863,0.410354,0.599842,0.789333,0.978824,0.960000,0.941176,0.922353,0.903530,0.884706,0.877177,0.869647,0.862118,0.854588,0.847059,0.848941,0.850823,0.852706,0.854588,0.856470,0.856470,0.856470,0.856470,0.856470,0.856470,0.865882,0.875294,0.884706,0.894117,0.903529,0.912941,0.922353,0.931764,0.941176,0.950588,0.950588,0.950588,0.950588,0.950588,0.950588,0.943059,0.935529,0.928000,0.920470,0.912941,0.912941,0.912941,0.912941,0.912941,0.912941,0.882196,0.851452,0.820708,0.789963,0.759218,0.768630,0.778042,0.787454,0.796865,0.806277,0.842669,0.879061,0.915452,0.951844,0.988235,0.813807,0.639371,0.464943,0.290507,0.116079,0.148078,0.180079,0.212078,0.244079,0.276078,0.306195,0.336314,0.366431,0.396549,0.426666,0.434196,0.441725,0.449254,0.456784,0.464313,0.469960,0.475607,0.481254,0.486901,0.492548,0.490666,0.488784,0.486901,0.485019,0.483137,0.488784,0.494431,0.500078,0.505725,0.511372,0.475608,0.439843,0.404078,0.368313,0.332549,0.302432,0.272313,0.242196,0.212078,0.181961,0.193255,0.204549,0.215843,0.227138,0.238432,0.230902,0.223373,0.215844,0.208314,0.200785,0.234666,0.268550,0.302432,0.336315,0.370197,0.400314,0.430432,0.460549,0.490668,0.520785,0.543373,0.565961,0.588549,0.611138,0.633726,0.652549,0.671373,0.690196,0.709020,0.727843,0.756078,0.784314,0.812549,0.840785,0.869020,0.878431,0.887843,0.897255,0.906667,0.916079,0.912314,0.908549,0.904784,0.901019,0.897255,0.904784,0.912314,0.919843,0.927372,0.934902,0.917961,0.901019,0.884078,0.867137,0.850196,0.821961,0.793725,0.765490,0.737254,0.709019,0.669491,0.629960,0.590431,0.550901,0.511372,0.513255,0.515137,0.517019,0.518902,0.520784,0.554666,0.588549,0.622431,0.656314,0.690196,0.699608,0.709020,0.718431,0.727843,0.737255,0.731608,0.725961,0.720314,0.714666,0.709019,0.709019,0.709019,0.709019,0.709019,0.709019,0.735372,0.761725,0.788078,0.814432,0.840784,0.857725,0.874667,0.891608,0.908549,0.925490,0.745414,0.565332,0.385256,0.205174
0.298039,0.298039,0.288627,0.279216,0.269804,0.260392,0.250980,0.269804,0.288627,0.307451,0.326274,0.345098,0.335686,0.326275,0.316863,0.307451,0.298039,0.316863,0.335686,0.354510,0.373333,0.392157,0.392157,0.392157,0.392157,0.392157,0.392157,0.392157,0.392157,0.392157,0.392157,0.392157,0.382745,0.373333,0.363922,0.354510,0.345098,0.326274,0.307451,0.288628,0.269804,0.250980,0.241569,0.232157,0.222745,0.213333,0.203922,0.194510,0.185098,0.175686,0.166275,0.156863,0.138039,0.119216,0.100392,0.081569,0.062745,0.244707,0.426668,0.608626,0.790588,0.972549,0.963137,0.953725,0.944314,0.934902,0.925490,0.906667,0.887843,0.869020,0.850196,0.831373,0.821961,0.812549,0.803137,0.793726,0.784314,0.765490,0.746667,0.727843,0.709020,0.690196,0.661961,0.633725,0.605490,0.577255,0.549020,0.520784,0.492549,0.464314,0.436079,0.407843,0.398431,0.389020,0.379608,0.370196,0.360784,0.332549,0.304314,0.276079,0.247843,0.219608,0.210196,0.200784,0.191373,0.181961,0.172549,0.153725,0.134902,0.116079,0.097255,0.078431,0.069020,0.059608,0.050196,0.040784,0.031373,0.222746,0.414119,0.605489,0.796862,0.988235,0.969412,0.950588,0.931765,0.912941,0.894118,0.884706,0.875294,0.865882,0.856471,0.847059,0.847059,0.847059,0.847059,0.847059,0.847059,0.847059,0.847059,0.847059,0.847059,0.847059,0.856471,0.865882,0.875294,0.884706,0.894118,0.903529,0.912941,0.922353,0.931765,0.941176,0.941176,0.941176,0.941176,0.941176,0.941176,0.931765,0.922353,0.912941,0.903529,0.894118,0.894118,0.894118,0.894118,0.894118,0.894118,0.903529,0.912941,0.922353,0.931765,0.941176,0.950588,0.960000,0.969412,0.978823,0.988235,0.988235,0.988235,0.988235,0.988235,0.988235,0.815689,0.643136,0.470590,0.298037,0.125490,0.153725,0.181961,0.210196,0.238432,0.266667,0.294902,0.323137,0.351372,0.379608,0.407843,0.407843,0.407843,0.407843,0.407843,0.407843,0.417255,0.426667,0.436078,0.445490,0.454902,0.454902,0.454902,0.454902,0.454902,0.454902,0.464314,0.473726,0.483137,0.492549,0.501961,0.464314,0.426666,0.389020,0.351372,0.313725,0.285491,0.257255,0.229020,0.200784,0.172549,0.191372,0.210196,0.229019,0.247843,0.266667,0.257255,0.247843,0.238431,0.229019,0.219608,0.257254,0.294902,0.332549,0.370197,0.407843,0.436078,0.464314,0.492549,0.520785,0.549020,0.567843,0.586667,0.605490,0.624314,0.643137,0.661960,0.680784,0.699608,0.718432,0.737255,0.765490,0.793726,0.821961,0.850197,0.878431,0.887843,0.897255,0.906667,0.916079,0.925490,0.916079,0.906667,0.897255,0.887843,0.878431,0.887843,0.897255,0.906667,0.916079,0.925490,0.906667,0.887843,0.869020,0.850196,0.831373,0.803138,0.774902,0.746667,0.718431,0.690196,0.652550,0.614902,0.577255,0.539607,0.501961,0.501961,0.501961,0.501961,0.501961,0.501961,0.539607,0.577255,0.614902,0.652550,0.690196,0.699608,0.709020,0.718431,0.727843,0.737255,0.727843,0.718431,0.709020,0.699608,0.690196,0.690196,0.690196,0.690196,0.690196,0.690196,0.718431,0.746667,0.774902,0.803138,0.831373,0.850196,0.869020,0.887843,0.906667,0.925490,0.743532,0.561567,0.379609,0.197644
0.282981,0.279216,0.269804,0.260392,0.250981,0.241569,0.232157,0.250981,0.269804,0.288628,0.307451,0.326275,0.320628,0.314981,0.309333,0.303686,0.298039,0.313098,0.328157,0.343216,0.358275,0.373334,0.373334,0.373334,0.373334,0.373334,0.373334,0.371451,0.369569,0.367687,0.365804,0.363922,0.356393,0.348863,0.341334,0.333804,0.326275,0.311216,0.296157,0.281098,0.266039,0.250980,0.241569,0.232157,0.222745,0.213333,0.203922,0.192627,0.181333,0.170039,0.158745,0.147451,0.128628,0.109804,0.090981,0.072157,0.053333,0.237177,0.421021,0.604861,0.788705,0.972549,0.961255,0.949961,0.938667,0.927373,0.916079,0.897255,0.878431,0.859608,0.840785,0.821961,0.810667,0.799373,0.788079,0.776785,0.765490,0.748549,0.731608,0.714667,0.697726,0.680784,0.652549,0.624314,0.596079,0.567843,0.539608,0.511373,0.483137,0.454902,0.426667,0.398432,0.390902,0.383373,0.375843,0.368314,0.360784,0.338196,0.315607,0.293020,0.270431,0.247843,0.236549,0.225254,0.213961,0.202666,0.191372,0.174431,0.157490,0.140549,0.123608,0.106666,0.095372,0.084078,0.072784,0.061490,0.050196,0.199530,0.348865,0.498197,0.647531,0.796866,0.818198,0.839531,0.860864,0.882196,0.903529,0.894117,0.884706,0.875294,0.865882,0.856470,0.854588,0.852706,0.850823,0.848941,0.847059,0.847059,0.847059,0.847059,0.847059,0.847059,0.854588,0.862118,0.869647,0.877177,0.884706,0.894118,0.903530,0.912941,0.922353,0.931765,0.931765,0.931765,0.931765,0.931765,0.931765,0.922353,0.912941,0.903530,0.894118,0.884706,0.884706,0.884706,0.884706,0.884706,0.884706,0.892235,0.899765,0.907294,0.914824,0.922353,0.931765,0.941177,0.950588,0.960000,0.969412,0.969412,0.969412,0.969412,0.969412,0.969412,0.800630,0.631842,0.463060,0.294272,0.125490,0.157490,0.189490,0.221490,0.253490,0.285490,0.306196,0.326902,0.347608,0.368314,0.389020,0.385255,0.381491,0.377726,0.373961,0.370197,0.379608,0.389020,0.398432,0.407844,0.417255,0.421020,0.424785,0.428549,0.432314,0.436079,0.443608,0.451138,0.458667,0.466197,0.473726,0.441726,0.409726,0.377726,0.345725,0.313725,0.283608,0.253490,0.223373,0.193255,0.163137,0.183843,0.204549,0.225255,0.245961,0.266667,0.266667,0.266666,0.266666,0.266666,0.266666,0.302430,0.338196,0.373960,0.409725,0.445490,0.466195,0.486902,0.507607,0.528314,0.549020,0.564078,0.579137,0.594196,0.609255,0.624314,0.641255,0.658197,0.675137,0.692079,0.709020,0.737255,0.765491,0.793726,0.821962,0.850197,0.865255,0.880314,0.895373,0.910432,0.925490,0.916079,0.906667,0.897255,0.887843,0.878431,0.882196,0.885961,0.889726,0.893491,0.897255,0.876550,0.855843,0.835138,0.814432,0.793726,0.765491,0.737255,0.709020,0.680784,0.652550,0.616785,0.581020,0.545256,0.509490,0.473726,0.471844,0.469961,0.468079,0.466197,0.464314,0.500078,0.535844,0.571608,0.607374,0.643138,0.654432,0.665726,0.677020,0.688315,0.699608,0.697726,0.695843,0.693961,0.692079,0.690196,0.693961,0.697725,0.701490,0.705255,0.709019,0.735372,0.761725,0.788078,0.814432,0.840784,0.855843,0.870902,0.885961,0.901020,0.916079,0.768629,0.621174,0.473725,0.326270
0.267921,0.260392,0.250980,0.241569,0.232157,0.222745,0.213333,0.232157,0.250980,0.269804,0.288627,0.307451,0.305569,0.303686,0.301804,0.299922,0.298039,0.309333,0.320627,0.331922,0.343216,0.354510,0.354510,0.354510,0.354510,0.354510,0.354510,0.350745,0.346980,0.343216,0.339451,0.335686,0.330039,0.324392,0.318745,0.313098,0.307451,0.296157,0.284863,0.273569,0.262275,0.250980,0.241569,0.232157,0.222745,0.213333,0.203922,0.190745,0.177568,0.164392,0.151216,0.138039,0.119216,0.100392,0.081569,0.062745,0.043921,0.229648,0.415374,0.601097,0.786823,0.972549,0.959372,0.946196,0.933020,0.919843,0.906667,0.887843,0.869019,0.850196,0.831373,0.812549,0.799372,0.786196,0.773020,0.759843,0.746667,0.731608,0.716549,0.701490,0.686431,0.671372,0.643137,0.614902,0.586667,0.558431,0.530196,0.501961,0.473725,0.445490,0.417255,0.389020,0.383372,0.377725,0.372078,0.366431,0.360784,0.343843,0.326902,0.309961,0.293020,0.276079,0.262902,0.249726,0.236549,0.223373,0.210196,0.195137,0.180078,0.165020,0.149961,0.134902,0.121726,0.108549,0.095373,0.082196,0.069020,0.176314,0.283608,0.390900,0.498195,0.605489,0.666979,0.728470,0.789960,0.851451,0.912941,0.903529,0.894118,0.884706,0.875294,0.865882,0.862118,0.858353,0.854588,0.850824,0.847059,0.847059,0.847059,0.847059,0.847059,0.847059,0.852706,0.858353,0.864000,0.869647,0.875294,0.884706,0.894118,0.903529,0.912941,0.922353,0.922353,0.922353,0.922353,0.922353,0.922353,0.912941,0.903529,0.894118,0.884706,0.875294,0.875294,0.875294,0.875294,0.875294,0.875294,0.880941,0.886588,0.892235,0.897882,0.903529,0.912941,0.922353,0.931764,0.941176,0.950588,0.950588,0.950588,0.950588,0.950588,0.950588,0.785571,0.620548,0.455531,0.290507,0.125490,0.161254,0.197020,0.232784,0.268550,0.304314,0.317490,0.330667,0.343843,0.357020,0.370196,0.362667,0.355137,0.347608,0.340078,0.332549,0.341960,0.351372,0.360784,0.370196,0.379608,0.387137,0.394666,0.402196,0.409725,0.417255,0.422902,0.428549,0.434196,0.439843,0.445490,0.419137,0.392784,0.366431,0.340078,0.313725,0.281726,0.249725,0.217726,0.185725,0.153725,0.176313,0.198902,0.221490,0.244079,0.266667,0.276078,0.285490,0.294902,0.304314,0.313726,0.347608,0.381491,0.415373,0.449256,0.483138,0.496314,0.509490,0.522667,0.535843,0.549020,0.560314,0.571608,0.582902,0.594196,0.605490,0.620549,0.635608,0.650666,0.665726,0.680784,0.709019,0.737255,0.765490,0.793726,0.821961,0.842666,0.863373,0.884078,0.904785,0.925490,0.916079,0.906667,0.897255,0.887843,0.878431,0.876549,0.874667,0.872784,0.870902,0.869019,0.846431,0.823843,0.801255,0.778666,0.756078,0.727843,0.699607,0.671372,0.643137,0.614902,0.581020,0.547137,0.513255,0.479372,0.445490,0.441725,0.437961,0.434196,0.430431,0.426666,0.460548,0.494431,0.528313,0.562196,0.596078,0.609254,0.622431,0.635607,0.648784,0.661960,0.667608,0.673255,0.678902,0.684549,0.690196,0.697725,0.705255,0.712784,0.720314,0.727843,0.752313,0.776785,0.801255,0.825726,0.850196,0.861490,0.872784,0.884078,0.895373,0.906667,0.793727,0.680784,0.567845,0.454901
0.252863,0.241569,0.232157,0.222745,0.213333,0.203922,0.194510,0.213334,0.232157,0.250981,0.269804,0.288628,0.290510,0.292392,0.294275,0.296157,0.298039,0.305569,0.313098,0.320628,0.328157,0.335686,0.335686,0.335686,0.335686,0.335686,0.335686,0.330039,0.324392,0.318745,0.313098,0.307451,0.303686,0.299922,0.296157,0.292392,0.288628,0.281098,0.273569,0.266039,0.258510,0.250980,0.241569,0.232157,0.222745,0.213333,0.203922,0.188863,0.173804,0.158745,0.143686,0.128628,0.109804,0.090980,0.072157,0.053333,0.034510,0.222118,0.409727,0.597332,0.784940,0.972549,0.957490,0.942431,0.927373,0.912314,0.897255,0.878431,0.859608,0.840785,0.821961,0.803137,0.788078,0.773020,0.757961,0.742902,0.727843,0.714667,0.701490,0.688314,0.675137,0.661961,0.633725,0.605490,0.577255,0.549020,0.520784,0.492549,0.464314,0.436079,0.407843,0.379608,0.375843,0.372078,0.368314,0.364549,0.360784,0.349490,0.338196,0.326902,0.315608,0.304314,0.289255,0.274196,0.259137,0.244078,0.229019,0.215843,0.202666,0.189490,0.176314,0.163137,0.148078,0.133019,0.117961,0.102902,0.087843,0.153098,0.218354,0.283608,0.348864,0.414119,0.515766,0.617413,0.719059,0.820706,0.922353,0.912941,0.903529,0.894118,0.884706,0.875294,0.869647,0.864000,0.858353,0.852706,0.847059,0.847059,0.847059,0.847059,0.847059,0.847059,0.850824,0.854588,0.858353,0.862118,0.865882,0.875294,0.884706,0.894118,0.903529,0.912941,0.912941,0.912941,0.912941,0.912941,0.912941,0.903529,0.894118,0.884706,0.875294,0.865882,0.865882,0.865882,0.865882,0.865882,0.865882,0.869647,0.873412,0.877177,0.880941,0.884706,0.894118,0.903530,0.912941,0.922353,0.931765,0.931765,0.931765,0.931765,0.931765,0.931765,0.770512,0.609254,0.448001,0.286743,0.125490,0.165019,0.204549,0.244078,0.283608,0.323137,0.328784,0.334431,0.340078,0.345726,0.351373,0.340079,0.328784,0.317491,0.306196,0.294902,0.304314,0.313726,0.323137,0.332549,0.341961,0.353255,0.364549,0.375843,0.387138,0.398432,0.402196,0.405961,0.409726,0.413490,0.417255,0.396550,0.375843,0.355137,0.334431,0.313725,0.279844,0.245961,0.212079,0.178196,0.144314,0.168784,0.193255,0.217725,0.242196,0.266667,0.285490,0.304314,0.323137,0.341961,0.360784,0.392783,0.424784,0.456784,0.488785,0.520784,0.526431,0.532078,0.537725,0.543373,0.549020,0.556549,0.564079,0.571608,0.579137,0.586667,0.599843,0.613020,0.626196,0.639373,0.652549,0.680784,0.709020,0.737255,0.765491,0.793726,0.820078,0.846432,0.872784,0.899138,0.925490,0.916079,0.906667,0.897255,0.887843,0.878431,0.870902,0.863373,0.855843,0.848314,0.840785,0.816314,0.791843,0.767373,0.742902,0.718432,0.690197,0.661961,0.633726,0.605490,0.577255,0.545256,0.513255,0.481255,0.449255,0.417255,0.411608,0.405961,0.400314,0.394667,0.389020,0.421019,0.453020,0.485020,0.517020,0.549020,0.564079,0.579138,0.594196,0.609255,0.624314,0.637490,0.650667,0.663843,0.677020,0.690196,0.701490,0.712784,0.724078,0.735373,0.746667,0.769254,0.791843,0.814431,0.837020,0.859608,0.867137,0.874667,0.882196,0.889726,0.897255,0.818825,0.740391,0.661961,0.583527
0.237804,0.222745,0.213333,0.203921,0.194509,0.185098,0.175686,0.194510,0.213333,0.232157,0.250980,0.269804,0.275451,0.281098,0.286745,0.292392,0.298039,0.301804,0.305569,0.309333,0.313098,0.316862,0.316862,0.316862,0.316862,0.316862,0.316862,0.309333,0.301804,0.294274,0.286745,0.279215,0.277333,0.275451,0.273568,0.271686,0.269804,0.266039,0.262274,0.258510,0.254745,0.250980,0.241569,0.232157,0.222745,0.213333,0.203922,0.186980,0.170039,0.153098,0.136157,0.119216,0.100392,0.081568,0.062745,0.043921,0.025098,0.214589,0.404080,0.593567,0.783058,0.972549,0.955608,0.938666,0.921726,0.904784,0.887843,0.869019,0.850196,0.831373,0.812549,0.793725,0.776784,0.759843,0.742902,0.725961,0.709019,0.697725,0.686431,0.675137,0.663843,0.652549,0.624313,0.596078,0.567843,0.539608,0.511372,0.483137,0.454902,0.426667,0.398431,0.370196,0.368314,0.366431,0.364549,0.362667,0.360784,0.355137,0.349490,0.343843,0.338196,0.332549,0.315608,0.298667,0.281726,0.264785,0.247843,0.236549,0.225255,0.213961,0.202667,0.191373,0.174432,0.157490,0.140549,0.123608,0.106667,0.129882,0.153097,0.176312,0.199527,0.222742,0.364547,0.506352,0.648155,0.789960,0.931765,0.922353,0.912941,0.903530,0.894118,0.884706,0.877177,0.869647,0.862118,0.854588,0.847059,0.847059,0.847059,0.847059,0.847059,0.847059,0.848941,0.850823,0.852706,0.854588,0.856470,0.865882,0.875294,0.884706,0.894117,0.903529,0.903529,0.903529,0.903529,0.903529,0.903529,0.894117,0.884706,0.875294,0.865882,0.856470,0.856470,0.856470,0.856470,0.856470,0.856470,0.858353,0.860235,0.862117,0.864000,0.865882,0.875294,0.884706,0.894117,0.903529,0.912941,0.912941,0.912941,0.912941,0.912941,0.912941,0.755453,0.597959,0.440472,0.282978,0.125490,0.168784,0.212079,0.255372,0.298668,0.341961,0.340079,0.338196,0.336314,0.334431,0.332549,0.317490,0.302431,0.287372,0.272313,0.257254,0.266666,0.276078,0.285490,0.294902,0.304313,0.319372,0.334431,0.349490,0.364549,0.379608,0.381490,0.383372,0.385255,0.387137,0.389019,0.373961,0.358902,0.343843,0.328784,0.313725,0.277961,0.242196,0.206432,0.170666,0.134902,0.161254,0.187608,0.213961,0.240314,0.266667,0.294902,0.323138,0.351373,0.379609,0.407844,0.437961,0.468079,0.498196,0.528315,0.558432,0.556550,0.554667,0.552785,0.550902,0.549020,0.552784,0.556549,0.560314,0.564078,0.567843,0.579137,0.590431,0.601725,0.613019,0.624313,0.652548,0.680784,0.709019,0.737255,0.765490,0.797489,0.829490,0.861490,0.893491,0.925490,0.916079,0.906667,0.897255,0.887843,0.878431,0.865255,0.852078,0.838902,0.825725,0.812549,0.786196,0.759842,0.733490,0.707136,0.680784,0.652549,0.624313,0.596078,0.567842,0.539607,0.509490,0.479372,0.449255,0.419136,0.389019,0.381490,0.373960,0.366431,0.358901,0.351372,0.381489,0.411607,0.441725,0.471843,0.501960,0.518901,0.535843,0.552784,0.569725,0.586666,0.607372,0.628078,0.648784,0.669490,0.690196,0.705255,0.720314,0.735373,0.750432,0.765490,0.786196,0.806902,0.827608,0.848314,0.869020,0.872784,0.876549,0.880314,0.884078,0.887843,0.843923,0.800001,0.756080,0.712158
0.222745,0.203922,0.194510,0.185098,0.175686,0.166275,0.156863,0.175686,0.194510,0.213333,0.232157,0.250980,0.260392,0.269804,0.279216,0.288627,0.298039,0.298039,0.298039,0.298039,0.298039,0.298039,0.298039,0.298039,0.298039,0.298039,0.298039,0.288627,0.279216,0.269804,0.260392,0.250980,0.250980,0.250980,0.250980,0.250980,0.250980,0.250980,0.250980,0.250980,0.250980,0.250980,0.241569,0.232157,0.222745,0.213333,0.203922,0.185098,0.166274,0.147451,0.128628,0.109804,0.090980,0.072157,0.053333,0.034510,0.015686,0.207060,0.398433,0.589802,0.781176,0.972549,0.953725,0.934902,0.916079,0.897255,0.878431,0.859608,0.840784,0.821961,0.803137,0.784314,0.765490,0.746667,0.727843,0.709020,0.690196,0.680784,0.671372,0.661961,0.652549,0.643137,0.614902,0.586666,0.558432,0.530196,0.501961,0.473725,0.445490,0.417255,0.389020,0.360784,0.360784,0.360784,0.360784,0.360784,0.360784,0.360784,0.360784,0.360784,0.360784,0.360784,0.341961,0.323137,0.304314,0.285490,0.266667,0.257255,0.247843,0.238431,0.229020,0.219608,0.200784,0.181961,0.163137,0.144314,0.125490,0.106667,0.087843,0.069020,0.050196,0.031373,0.213334,0.395296,0.577254,0.759215,0.941176,0.931765,0.922353,0.912941,0.903529,0.894118,0.884706,0.875294,0.865882,0.856471,0.847059,0.847059,0.847059,0.847059,0.847059,0.847059,0.847059,0.847059,0.847059,0.847059,0.847059,0.856471,0.865882,0.875294,0.884706,0.894118,0.894118,0.894118,0.894118,0.894118,0.894118,0.884706,0.875294,0.865882,0.856471,0.847059,0.847059,0.847059,0.847059,0.847059,0.847059,0.847059,0.847059,0.847059,0.847059,0.847059,0.856471,0.865882,0.875294,0.884706,0.894118,0.894118,0.894118,0.894118,0.894118,0.894118,0.740395,0.586665,0.432942,0.279213,0.125490,0.172548,0.219608,0.266666,0.313726,0.360784,0.351373,0.341961,0.332549,0.323137,0.313725,0.294902,0.276078,0.257255,0.238431,0.219608,0.229019,0.238431,0.247843,0.257255,0.266667,0.285490,0.304314,0.323137,0.341961,0.360784,0.360784,0.360784,0.360784,0.360784,0.360784,0.351373,0.341961,0.332549,0.323137,0.313725,0.276079,0.238431,0.200785,0.163137,0.125490,0.153725,0.181961,0.210196,0.238432,0.266667,0.304313,0.341961,0.379608,0.417255,0.454902,0.483137,0.511373,0.539608,0.567844,0.596078,0.586667,0.577255,0.567843,0.558431,0.549020,0.549020,0.549020,0.549020,0.549020,0.549020,0.558431,0.567843,0.577255,0.586667,0.596078,0.624313,0.652549,0.680784,0.709020,0.737255,0.774901,0.812549,0.850196,0.887844,0.925490,0.916079,0.906667,0.897255,0.887843,0.878431,0.859608,0.840784,0.821961,0.803137,0.784314,0.756079,0.727843,0.699608,0.671372,0.643137,0.614902,0.586666,0.558432,0.530196,0.501961,0.473726,0.445490,0.417255,0.389019,0.360784,0.351373,0.341961,0.332549,0.323137,0.313725,0.341960,0.370196,0.398431,0.426667,0.454902,0.473725,0.492549,0.511372,0.530196,0.549020,0.577254,0.605490,0.633725,0.661961,0.690196,0.709019,0.727843,0.746667,0.765490,0.784314,0.803137,0.821961,0.840784,0.859608,0.878431,0.878431,0.878431,0.878431,0.878431,0.878431,0.869020,0.859608,0.850196,0.840784
0.203922,0.185098,0.175687,0.166275,0.156863,0.147451,0.138040,0.156863,0.175687,0.194510,0.213334,0.232157,0.241569,0.250981,0.260392,0.269804,0.279216,0.281098,0.282981,0.284863,0.286745,0.288628,0.286745,0.284863,0.282981,0.281098,0.279216,0.269804,0.260392,0.250981,0.241569,0.232157,0.232157,0.232157,0.232157,0.232157,0.232157,0.232157,0.232157,0.232157,0.232157,0.232157,0.224628,0.217098,0.209569,0.202039,0.194510,0.177569,0.160627,0.143686,0.126745,0.109804,0.090980,0.072157,0.053333,0.034510,0.015686,0.207060,0.398433,0.589802,0.781176,0.972549,0.955608,0.938666,0.921726,0.904784,0.887843,0.869019,0.850196,0.831373,0.812549,0.793725,0.774902,0.756078,0.737255,0.718431,0.699608,0.688314,0.677019,0.665726,0.654431,0.643137,0.616784,0.590431,0.564079,0.537725,0.511372,0.486902,0.462431,0.437961,0.413490,0.389019,0.389019,0.389019,0.389019,0.389019,0.389019,0.387137,0.385255,0.383372,0.381490,0.379608,0.360784,0.341960,0.323137,0.304314,0.285490,0.276078,0.266666,0.257255,0.247843,0.238431,0.217725,0.197019,0.176314,0.155608,0.134902,0.116078,0.097255,0.078431,0.059608,0.040784,0.184472,0.328159,0.471844,0.615531,0.759218,0.789963,0.820708,0.851452,0.882196,0.912941,0.901647,0.890353,0.879059,0.867765,0.856470,0.854588,0.852706,0.850823,0.848941,0.847059,0.845176,0.843294,0.841412,0.839530,0.837647,0.847059,0.856471,0.865882,0.875294,0.884706,0.884706,0.884706,0.884706,0.884706,0.884706,0.877177,0.869647,0.862118,0.854588,0.847059,0.845176,0.843294,0.841412,0.839530,0.837647,0.837647,0.837647,0.837647,0.837647,0.837647,0.847059,0.856471,0.865882,0.875294,0.884706,0.884706,0.884706,0.884706,0.884706,0.884706,0.763609,0.642508,0.521411,0.400310,0.279213,0.286116,0.293019,0.299921,0.306824,0.313726,0.308079,0.302432,0.296785,0.291138,0.285491,0.268550,0.251608,0.234667,0.217726,0.200785,0.206432,0.212079,0.217726,0.223373,0.229020,0.247843,0.266667,0.285491,0.304315,0.323138,0.325020,0.326902,0.328785,0.330667,0.332549,0.326902,0.321255,0.315608,0.309961,0.304314,0.268550,0.232784,0.197020,0.161254,0.125490,0.148078,0.170667,0.193255,0.215844,0.238432,0.279843,0.321256,0.362667,0.404079,0.445490,0.471843,0.498196,0.524549,0.550903,0.577255,0.569726,0.562196,0.554667,0.547137,0.539608,0.539608,0.539608,0.539608,0.539608,0.539608,0.549020,0.558432,0.567843,0.577255,0.586667,0.609255,0.631844,0.654432,0.677020,0.699608,0.741019,0.782432,0.823843,0.865256,0.906667,0.891608,0.876549,0.861491,0.846432,0.831373,0.814432,0.797491,0.780550,0.763608,0.746667,0.722197,0.697726,0.673255,0.648784,0.624314,0.594197,0.564079,0.533961,0.503843,0.473726,0.447373,0.421020,0.394667,0.368314,0.341961,0.336314,0.330667,0.325020,0.319373,0.313725,0.341960,0.370196,0.398431,0.426667,0.454902,0.477490,0.500078,0.522666,0.545255,0.567843,0.596078,0.624314,0.652549,0.680784,0.709019,0.727843,0.746667,0.765490,0.784314,0.803137,0.818196,0.833255,0.848313,0.863373,0.878431,0.876549,0.874667,0.872784,0.870902,0.869020,0.859608,0.850196,0.840785,0.831373
0.185098,0.166274,0.156863,0.147451,0.138039,0.128627,0.119216,0.138039,0.156863,0.175686,0.194510,0.213333,0.222745,0.232157,0.241569,0.250980,0.260392,0.264157,0.267921,0.271686,0.275451,0.279216,0.275451,0.271686,0.267921,0.264157,0.260392,0.250980,0.241568,0.232157,0.222745,0.213333,0.213333,0.213333,0.213333,0.213333,0.213333,0.213333,0.213333,0.213333,0.213333,0.213333,0.207686,0.202039,0.196392,0.190745,0.185098,0.170039,0.154980,0.139922,0.124863,0.109804,0.090980,0.072157,0.053333,0.034510,0.015686,0.207060,0.398433,0.589802,0.781176,0.972549,0.957490,0.942431,0.927373,0.912314,0.897255,0.878431,0.859608,0.840785,0.821961,0.803137,0.784314,0.765490,0.746667,0.727843,0.709020,0.695843,0.682667,0.669490,0.656314,0.643137,0.618667,0.594196,0.569726,0.545255,0.520784,0.500078,0.479373,0.458667,0.437961,0.417255,0.417255,0.417255,0.417255,0.417255,0.417255,0.413490,0.409726,0.405961,0.402196,0.398432,0.379608,0.360784,0.341961,0.323137,0.304314,0.294902,0.285490,0.276079,0.266667,0.257255,0.234667,0.212078,0.189490,0.166902,0.144314,0.125490,0.106667,0.087843,0.069020,0.050196,0.155608,0.261020,0.366430,0.471842,0.577254,0.648156,0.719059,0.789960,0.860862,0.931765,0.918588,0.905412,0.892235,0.879059,0.865882,0.862118,0.858353,0.854588,0.850824,0.847059,0.843294,0.839529,0.835765,0.832000,0.828235,0.837647,0.847059,0.856470,0.865882,0.875294,0.875294,0.875294,0.875294,0.875294,0.875294,0.869647,0.864000,0.858353,0.852706,0.847059,0.843294,0.839529,0.835765,0.832000,0.828235,0.828235,0.828235,0.828235,0.828235,0.828235,0.837647,0.847059,0.856470,0.865882,0.875294,0.875294,0.875294,0.875294,0.875294,0.875294,0.786825,0.698353,0.609884,0.521411,0.432942,0.399688,0.366432,0.333177,0.299921,0.266666,0.264784,0.262902,0.261019,0.259137,0.257255,0.242196,0.227137,0.212078,0.197019,0.181961,0.183843,0.185725,0.187608,0.189490,0.191372,0.210196,0.229019,0.247843,0.266667,0.285490,0.289255,0.293019,0.296784,0.300549,0.304314,0.302431,0.300549,0.298667,0.296784,0.294902,0.261020,0.227137,0.193255,0.159372,0.125490,0.142431,0.159373,0.176313,0.193255,0.210196,0.255372,0.300549,0.345725,0.390903,0.436078,0.460549,0.485020,0.509490,0.533961,0.558431,0.552784,0.547137,0.541490,0.535843,0.530196,0.530196,0.530196,0.530196,0.530196,0.530196,0.539608,0.549020,0.558431,0.567843,0.577255,0.594196,0.611137,0.628078,0.645020,0.661960,0.707136,0.752314,0.797490,0.842667,0.887843,0.867137,0.846431,0.825725,0.805019,0.784313,0.769255,0.754196,0.739137,0.724078,0.709019,0.688314,0.667607,0.646902,0.626196,0.605490,0.573491,0.541490,0.509490,0.477490,0.445490,0.421020,0.396549,0.372078,0.347607,0.323137,0.321255,0.319372,0.317490,0.315608,0.313725,0.341960,0.370196,0.398431,0.426667,0.454902,0.481255,0.507608,0.533961,0.560314,0.586667,0.614902,0.643138,0.671372,0.699608,0.727843,0.746667,0.765490,0.784314,0.803138,0.821961,0.833255,0.844549,0.855843,0.867137,0.878431,0.874667,0.870902,0.867137,0.863372,0.859608,0.850196,0.840784,0.831373,0.821961
0.166275,0.147451,0.138039,0.128628,0.119216,0.109804,0.100392,0.119216,0.138039,0.156863,0.175686,0.194510,0.203922,0.213333,0.222745,0.232157,0.241569,0.247216,0.252863,0.258510,0.264157,0.269804,0.264157,0.258510,0.252863,0.247216,0.241569,0.232157,0.222745,0.213334,0.203922,0.194510,0.194510,0.194510,0.194510,0.194510,0.194510,0.194510,0.194510,0.194510,0.194510,0.194510,0.190745,0.186980,0.183216,0.179451,0.175686,0.162510,0.149333,0.136157,0.122980,0.109804,0.090980,0.072157,0.053333,0.034510,0.015686,0.207060,0.398433,0.589802,0.781176,0.972549,0.959372,0.946196,0.933020,0.919843,0.906667,0.887843,0.869019,0.850196,0.831373,0.812549,0.793725,0.774902,0.756079,0.737255,0.718431,0.703372,0.688314,0.673255,0.658196,0.643137,0.620549,0.597961,0.575373,0.552784,0.530196,0.513255,0.496313,0.479373,0.462431,0.445490,0.445490,0.445490,0.445490,0.445490,0.445490,0.439843,0.434196,0.428549,0.422902,0.417255,0.398431,0.379608,0.360784,0.341961,0.323137,0.313725,0.304314,0.294902,0.285490,0.276078,0.251608,0.227137,0.202667,0.178196,0.153725,0.134902,0.116078,0.097255,0.078431,0.059608,0.126746,0.193883,0.261020,0.328158,0.395296,0.506354,0.617413,0.728470,0.839529,0.950588,0.935529,0.920470,0.905412,0.890353,0.875294,0.869647,0.864000,0.858353,0.852706,0.847059,0.841412,0.835765,0.830118,0.824471,0.818824,0.828235,0.837647,0.847059,0.856471,0.865882,0.865882,0.865882,0.865882,0.865882,0.865882,0.862118,0.858353,0.854588,0.850824,0.847059,0.841412,0.835765,0.830118,0.824471,0.818824,0.818824,0.818824,0.818824,0.818824,0.818824,0.828235,0.837647,0.847059,0.856471,0.865882,0.865882,0.865882,0.865882,0.865882,0.865882,0.810040,0.754195,0.698353,0.642508,0.586665,0.513255,0.439842,0.366432,0.293019,0.219608,0.221490,0.223373,0.225255,0.227138,0.229020,0.215844,0.202667,0.189490,0.176314,0.163137,0.161255,0.159373,0.157490,0.155608,0.153726,0.172549,0.191373,0.210196,0.229020,0.247843,0.253490,0.259138,0.264785,0.270432,0.276079,0.277961,0.279843,0.281726,0.283608,0.285490,0.253491,0.221490,0.189490,0.157490,0.125490,0.136784,0.148079,0.159373,0.170667,0.181961,0.230901,0.279844,0.328784,0.377726,0.426667,0.449255,0.471843,0.494431,0.517020,0.539608,0.535843,0.532079,0.528314,0.524549,0.520784,0.520784,0.520784,0.520784,0.520784,0.520784,0.530196,0.539608,0.549020,0.558432,0.567843,0.579137,0.590432,0.601726,0.613020,0.624314,0.673254,0.722197,0.771137,0.820079,0.869020,0.842667,0.816314,0.789961,0.763608,0.737255,0.724079,0.710902,0.697726,0.684549,0.671373,0.654432,0.637490,0.620549,0.603608,0.586667,0.552785,0.518902,0.485020,0.451137,0.417255,0.394667,0.372078,0.349491,0.326902,0.304314,0.306196,0.308079,0.309961,0.311843,0.313725,0.341960,0.370196,0.398431,0.426667,0.454902,0.485019,0.515137,0.545255,0.575373,0.605490,0.633725,0.661961,0.690196,0.718432,0.746667,0.765490,0.784314,0.803137,0.821961,0.840784,0.848313,0.855843,0.863372,0.870902,0.878431,0.872784,0.867137,0.861490,0.855843,0.850196,0.840785,0.831373,0.821961,0.812549
0.147451,0.128627,0.119215,0.109804,0.100392,0.090980,0.081568,0.100392,0.119215,0.138039,0.156862,0.175686,0.185098,0.194509,0.203921,0.213333,0.222745,0.230274,0.237804,0.245333,0.252863,0.260392,0.252863,0.245333,0.237804,0.230274,0.222745,0.213333,0.203921,0.194510,0.185098,0.175686,0.175686,0.175686,0.175686,0.175686,0.175686,0.175686,0.175686,0.175686,0.175686,0.175686,0.173804,0.171921,0.170039,0.168157,0.166274,0.154980,0.143686,0.132392,0.121098,0.109804,0.090980,0.072157,0.053333,0.034510,0.015686,0.207060,0.398433,0.589802,0.781176,0.972549,0.961255,0.949961,0.938667,0.927373,0.916079,0.897255,0.878431,0.859608,0.840785,0.821961,0.803137,0.784314,0.765490,0.746667,0.727843,0.710902,0.693961,0.677020,0.660079,0.643137,0.622431,0.601725,0.581020,0.560314,0.539608,0.526432,0.513255,0.500079,0.486902,0.473726,0.473726,0.473726,0.473726,0.473726,0.473726,0.466196,0.458667,0.451138,0.443608,0.436079,0.417255,0.398432,0.379608,0.360785,0.341961,0.332549,0.323137,0.313726,0.304314,0.294902,0.268549,0.242196,0.215844,0.189490,0.163137,0.144314,0.125490,0.106667,0.087843,0.069020,0.097882,0.126744,0.155606,0.184468,0.213331,0.364547,0.515764,0.666978,0.818195,0.969412,0.952471,0.935530,0.918589,0.901647,0.884706,0.877177,0.869647,0.862118,0.854588,0.847059,0.839529,0.832000,0.824471,0.816941,0.809412,0.818823,0.828235,0.837647,0.847059,0.856470,0.856470,0.856470,0.856470,0.856470,0.856470,0.854588,0.852706,0.850823,0.848941,0.847059,0.839529,0.832000,0.824471,0.816941,0.809412,0.809412,0.809412,0.809412,0.809412,0.809412,0.818823,0.828235,0.837647,0.847059,0.856470,0.856470,0.856470,0.856470,0.856470,0.856470,0.833256,0.810040,0.786825,0.763609,0.740395,0.626827,0.513255,0.399688,0.286116,0.172548,0.178195,0.183843,0.189490,0.195137,0.200784,0.189490,0.178196,0.166902,0.155607,0.144313,0.138666,0.133019,0.127372,0.121725,0.116078,0.134901,0.153725,0.172548,0.191372,0.210196,0.217725,0.225254,0.232784,0.240313,0.247843,0.253490,0.259137,0.264784,0.270431,0.276078,0.245961,0.215843,0.185726,0.155607,0.125490,0.131137,0.136784,0.142431,0.148078,0.153725,0.206430,0.259137,0.311842,0.364550,0.417255,0.437960,0.458667,0.479372,0.500078,0.520784,0.518902,0.517019,0.515137,0.513255,0.511372,0.511372,0.511372,0.511372,0.511372,0.511372,0.520784,0.530196,0.539608,0.549020,0.558431,0.564078,0.569725,0.575372,0.581019,0.586666,0.639371,0.692078,0.744784,0.797491,0.850196,0.818196,0.786195,0.754196,0.722195,0.690195,0.678901,0.667607,0.656313,0.645019,0.633725,0.620549,0.607372,0.594196,0.581019,0.567843,0.532079,0.496313,0.460549,0.424783,0.389019,0.368314,0.347607,0.326902,0.306195,0.285490,0.291137,0.296784,0.302431,0.308078,0.313725,0.341960,0.370196,0.398431,0.426667,0.454902,0.488784,0.522667,0.556549,0.590432,0.624314,0.652549,0.680785,0.709020,0.737256,0.765490,0.784314,0.803138,0.821961,0.840785,0.859608,0.863373,0.867137,0.870902,0.874667,0.878431,0.870902,0.863372,0.855843,0.848313,0.840784,0.831373,0.821961,0.812549,0.803137
0.128628,0.109804,0.100392,0.090980,0.081569,0.072157,0.062745,0.081569,0.100392,0.119216,0.138039,0.156863,0.166275,0.175686,0.185098,0.194510,0.203922,0.213333,0.222745,0.232157,0.241569,0.250980,0.241569,0.232157,0.222745,0.213333,0.203922,0.194510,0.185098,0.175686,0.166275,0.156863,0.156863,0.156863,0.156863,0.156863,0.156863,0.156863,0.156863,0.156863,0.156863,0.156863,0.156863,0.156863,0.156863,0.156863,0.156863,0.147451,0.138039,0.128628,0.119216,0.109804,0.090980,0.072157,0.053333,0.034510,0.015686,0.207060,0.398433,0.589802,0.781176,0.972549,0.963137,0.953725,0.944314,0.934902,0.925490,0.906667,0.887843,0.869020,0.850196,0.831373,0.812549,0.793725,0.774902,0.756079,0.737255,0.718431,0.699608,0.680784,0.661961,0.643137,0.624314,0.605490,0.586667,0.567843,0.549020,0.539608,0.530196,0.520784,0.511373,0.501961,0.501961,0.501961,0.501961,0.501961,0.501961,0.492549,0.483137,0.473726,0.464314,0.454902,0.436078,0.417255,0.398432,0.379608,0.360784,0.351373,0.341961,0.332549,0.323137,0.313725,0.285490,0.257255,0.229020,0.200784,0.172549,0.153725,0.134902,0.116079,0.097255,0.078431,0.069020,0.059608,0.050196,0.040784,0.031373,0.222746,0.414119,0.605489,0.796862,0.988235,0.969412,0.950588,0.931765,0.912941,0.894118,0.884706,0.875294,0.865882,0.856471,0.847059,0.837647,0.828235,0.818824,0.809412,0.800000,0.809412,0.818824,0.828235,0.837647,0.847059,0.847059,0.847059,0.847059,0.847059,0.847059,0.847059,0.847059,0.847059,0.847059,0.847059,0.837647,0.828235,0.818824,0.809412,0.800000,0.800000,0.800000,0.800000,0.800000,0.800000,0.809412,0.818824,0.828235,0.837647,0.847059,0.847059,0.847059,0.847059,0.847059,0.847059,0.856470,0.865882,0.875294,0.884706,0.894118,0.740395,0.586665,0.432942,0.279213,0.125490,0.134902,0.144314,0.153725,0.163137,0.172549,0.163137,0.153725,0.144314,0.134902,0.125490,0.116079,0.106667,0.097255,0.087843,0.078431,0.097255,0.116079,0.134902,0.153726,0.172549,0.181961,0.191373,0.200784,0.210196,0.219608,0.229019,0.238431,0.247843,0.257255,0.266667,0.238432,0.210196,0.181961,0.153725,0.125490,0.125490,0.125490,0.125490,0.125490,0.125490,0.181960,0.238432,0.294902,0.351373,0.407843,0.426666,0.445490,0.464314,0.483138,0.501961,0.501961,0.501961,0.501961,0.501961,0.501961,0.501961,0.501961,0.501961,0.501961,0.501961,0.511372,0.520784,0.530196,0.539608,0.549020,0.549020,0.549020,0.549020,0.549020,0.549020,0.605489,0.661961,0.718431,0.774903,0.831373,0.793726,0.756078,0.718432,0.680784,0.643137,0.633726,0.624314,0.614902,0.605490,0.596078,0.586667,0.577255,0.567843,0.558431,0.549020,0.511373,0.473725,0.436079,0.398431,0.360784,0.341961,0.323137,0.304314,0.285490,0.266667,0.276078,0.285490,0.294902,0.304314,0.313725,0.341960,0.370196,0.398431,0.426667,0.454902,0.492548,0.530196,0.567843,0.605491,0.643137,0.671372,0.699608,0.727843,0.756079,0.784314,0.803137,0.821961,0.840784,0.859608,0.878431,0.878431,0.878431,0.878431,0.878431,0.878431,0.869020,0.859608,0.850196,0.840784,0.831373,0.821961,0.812549,0.803137,0.793725
0.124863,0.109804,0.100392,0.090980,0.081569,0.072157,0.062745,0.081569,0.100392,0.119216,0.138039,0.156863,0.162510,0.168157,0.173804,0.179451,0.185098,0.194510,0.203922,0.213334,0.222745,0.232157,0.224628,0.217098,0.209569,0.202039,0.194510,0.183216,0.171922,0.160628,0.149334,0.138040,0.136157,0.134275,0.132393,0.130510,0.128628,0.130510,0.132393,0.134275,0.136157,0.138040,0.138040,0.138040,0.138040,0.138040,0.138040,0.130510,0.122981,0.115451,0.107922,0.100392,0.085333,0.070274,0.055216,0.040157,0.025098,0.176315,0.327532,0.478746,0.629963,0.781179,0.811924,0.842669,0.873413,0.904157,0.934902,0.916078,0.897255,0.878431,0.859608,0.840784,0.823843,0.806902,0.789961,0.773019,0.756078,0.739137,0.722196,0.705255,0.688313,0.671372,0.652549,0.633725,0.614902,0.596078,0.577254,0.567843,0.558431,0.549019,0.539607,0.530196,0.530196,0.530196,0.530196,0.530196,0.530196,0.520784,0.511372,0.501960,0.492549,0.483137,0.462431,0.441725,0.421019,0.400313,0.379608,0.364549,0.349490,0.334431,0.319373,0.304314,0.279843,0.255372,0.230902,0.206431,0.181961,0.165019,0.148078,0.131137,0.114196,0.097255,0.087843,0.078431,0.069019,0.059608,0.050196,0.199530,0.348865,0.498197,0.647531,0.796866,0.820081,0.843296,0.866511,0.889726,0.912941,0.903529,0.894117,0.884706,0.875294,0.865882,0.854588,0.843294,0.832000,0.820706,0.809412,0.815059,0.820706,0.826353,0.832000,0.837647,0.837647,0.837647,0.837647,0.837647,0.837647,0.837647,0.837647,0.837647,0.837647,0.837647,0.830118,0.822588,0.815059,0.807529,0.800000,0.800000,0.800000,0.800000,0.800000,0.800000,0.809412,0.818824,0.828235,0.837647,0.847059,0.845176,0.843294,0.841412,0.839530,0.837647,0.845177,0.852706,0.860235,0.867765,0.875294,0.754198,0.633096,0.512000,0.390898,0.269802,0.279213,0.288625,0.298037,0.307449,0.316861,0.274822,0.232783,0.190745,0.148705,0.106667,0.099138,0.091608,0.084079,0.076549,0.069020,0.122352,0.175686,0.229018,0.282352,0.335684,0.306822,0.277959,0.249098,0.220235,0.191373,0.200785,0.210197,0.219608,0.229020,0.238432,0.213962,0.189490,0.165020,0.140549,0.116079,0.152470,0.188862,0.225253,0.261646,0.298037,0.318115,0.338195,0.358273,0.378353,0.398432,0.417255,0.436079,0.454902,0.473726,0.492549,0.488785,0.485020,0.481255,0.477491,0.473726,0.477491,0.481255,0.485020,0.488785,0.492549,0.500078,0.507608,0.515137,0.522667,0.530196,0.533961,0.537726,0.541490,0.545255,0.549020,0.597960,0.646903,0.695843,0.744786,0.793726,0.761726,0.729726,0.697726,0.665725,0.633726,0.622432,0.611137,0.599843,0.588549,0.577255,0.569726,0.562196,0.554667,0.547137,0.539608,0.505726,0.471843,0.437961,0.404078,0.370196,0.351373,0.332549,0.313725,0.294902,0.276078,0.285490,0.294902,0.304314,0.313725,0.323137,0.353254,0.383373,0.413490,0.443608,0.473725,0.515136,0.556549,0.597960,0.639373,0.680784,0.705254,0.729725,0.754195,0.778667,0.803137,0.818196,0.833255,0.848313,0.863373,0.878431,0.876549,0.874667,0.872784,0.870902,0.869020,0.857726,0.846431,0.835138,0.823843,0.812549,0.803138,0.793726,0.784314,0.774902
0.121098,0.109804,0.100392,0.090980,0.081569,0.072157,0.062745,0.081569,0.100392,0.119216,0.138039,0.156863,0.158745,0.160627,0.162510,0.164392,0.166274,0.175686,0.185098,0.194510,0.203921,0.213333,0.207686,0.202039,0.196392,0.190745,0.185098,0.171921,0.158745,0.145569,0.132392,0.119216,0.115451,0.111686,0.107921,0.104157,0.100392,0.104157,0.107921,0.111686,0.115451,0.119216,0.119216,0.119216,0.119216,0.119216,0.119216,0.113568,0.107921,0.102274,0.096627,0.090980,0.079686,0.068392,0.057098,0.045804,0.034510,0.145569,0.256628,0.367685,0.478744,0.589802,0.660705,0.731608,0.802509,0.873411,0.944314,0.925490,0.906667,0.887843,0.869020,0.850196,0.835137,0.820078,0.805020,0.789961,0.774902,0.759843,0.744784,0.729726,0.714667,0.699608,0.680784,0.661961,0.643138,0.624314,0.605490,0.596079,0.586667,0.577255,0.567843,0.558432,0.558432,0.558432,0.558432,0.558432,0.558432,0.549020,0.539608,0.530196,0.520785,0.511373,0.488784,0.466196,0.443608,0.421020,0.398432,0.377726,0.357020,0.336314,0.315608,0.294902,0.274196,0.253490,0.232784,0.212079,0.191373,0.176314,0.161255,0.146196,0.131137,0.116079,0.106667,0.097255,0.087843,0.078432,0.069020,0.176314,0.283608,0.390900,0.498195,0.605489,0.670744,0.736000,0.801254,0.866509,0.931765,0.922353,0.912941,0.903530,0.894118,0.884706,0.871529,0.858353,0.845177,0.832000,0.818824,0.820706,0.822588,0.824471,0.826353,0.828235,0.828235,0.828235,0.828235,0.828235,0.828235,0.828235,0.828235,0.828235,0.828235,0.828235,0.822588,0.816941,0.811294,0.805647,0.800000,0.800000,0.800000,0.800000,0.800000,0.800000,0.809412,0.818824,0.828235,0.837647,0.847059,0.843294,0.839529,0.835765,0.832000,0.828235,0.833882,0.839529,0.845176,0.850823,0.856470,0.768001,0.679529,0.591060,0.502588,0.414119,0.423530,0.432942,0.442354,0.451766,0.461178,0.386512,0.311843,0.237177,0.162509,0.087843,0.082196,0.076549,0.070902,0.065255,0.059608,0.147450,0.235295,0.323137,0.410983,0.498825,0.431688,0.364549,0.297413,0.230274,0.163137,0.172549,0.181961,0.191372,0.200784,0.210196,0.189490,0.168784,0.148078,0.127372,0.106667,0.179450,0.252236,0.325020,0.397806,0.470590,0.454276,0.437961,0.421648,0.405333,0.389020,0.407843,0.426667,0.445490,0.464314,0.483137,0.475608,0.468078,0.460549,0.453019,0.445490,0.453019,0.460549,0.468078,0.475608,0.483137,0.488784,0.494431,0.500078,0.505725,0.511372,0.518902,0.526431,0.533961,0.541490,0.549020,0.590431,0.631843,0.673254,0.714667,0.756078,0.729726,0.703372,0.677020,0.650666,0.624314,0.611137,0.597961,0.584784,0.571608,0.558431,0.552784,0.547137,0.541490,0.535843,0.530196,0.500079,0.469961,0.439843,0.409725,0.379608,0.360785,0.341961,0.323137,0.304314,0.285490,0.294902,0.304314,0.313725,0.323137,0.332549,0.364549,0.396549,0.428549,0.460550,0.492549,0.537725,0.582903,0.628078,0.673256,0.718432,0.739137,0.759844,0.780549,0.801255,0.821961,0.833255,0.844549,0.855843,0.867137,0.878431,0.874667,0.870902,0.867137,0.863372,0.859608,0.846431,0.833255,0.820078,0.806902,0.793725,0.784314,0.774902,0.765490,0.756078
0.117333,0.109804,0.100392,0.090980,0.081569,0.072157,0.062745,0.081569,0.100392,0.119216,0.138039,0.156863,0.154980,0.153098,0.151216,0.149333,0.147451,0.156863,0.166275,0.175686,0.185098,0.194510,0.190745,0.186980,0.183216,0.179451,0.175686,0.160627,0.145569,0.130510,0.115451,0.100392,0.094745,0.089098,0.083451,0.077804,0.072157,0.077804,0.083451,0.089098,0.094745,0.100392,0.100392,0.100392,0.100392,0.100392,0.100392,0.096628,0.092863,0.089098,0.085333,0.081569,0.074039,0.066510,0.058980,0.051451,0.043921,0.114824,0.185727,0.256628,0.327530,0.398433,0.509492,0.620551,0.731608,0.842666,0.953725,0.934902,0.916078,0.897255,0.878431,0.859608,0.846431,0.833255,0.820078,0.806902,0.793725,0.780549,0.767372,0.754196,0.741019,0.727843,0.709019,0.690196,0.671372,0.652549,0.633725,0.624313,0.614902,0.605490,0.596078,0.586666,0.586666,0.586666,0.586666,0.586666,0.586666,0.577255,0.567843,0.558431,0.549019,0.539608,0.515137,0.490666,0.466196,0.441725,0.417255,0.390902,0.364549,0.338196,0.311843,0.285490,0.268549,0.251608,0.234667,0.217726,0.200784,0.187608,0.174431,0.161255,0.148078,0.134902,0.125490,0.116078,0.106667,0.097255,0.087843,0.153098,0.218354,0.283608,0.348864,0.414119,0.521413,0.628708,0.736000,0.843294,0.950588,0.941176,0.931764,0.922353,0.912941,0.903529,0.888470,0.873412,0.858353,0.843294,0.828235,0.826353,0.824471,0.822588,0.820706,0.818824,0.818824,0.818824,0.818824,0.818824,0.818824,0.818824,0.818824,0.818824,0.818824,0.818824,0.815059,0.811294,0.807529,0.803765,0.800000,0.800000,0.800000,0.800000,0.800000,0.800000,0.809412,0.818824,0.828235,0.837647,0.847059,0.841412,0.835765,0.830118,0.824471,0.818824,0.822588,0.826353,0.830118,0.833883,0.837647,0.781805,0.725960,0.670117,0.614273,0.558430,0.567842,0.577254,0.586665,0.596077,0.605489,0.498197,0.390901,0.283608,0.176312,0.069020,0.065255,0.061490,0.057726,0.053961,0.050196,0.172547,0.294902,0.417253,0.539609,0.661960,0.556550,0.451136,0.345726,0.240312,0.134902,0.144314,0.153726,0.163137,0.172549,0.181961,0.165020,0.148078,0.131138,0.114196,0.097255,0.206430,0.315608,0.424783,0.533961,0.643136,0.590431,0.537724,0.485020,0.432313,0.379608,0.398431,0.417255,0.436078,0.454902,0.473726,0.462432,0.451137,0.439843,0.428549,0.417255,0.428549,0.439843,0.451137,0.462432,0.473726,0.477490,0.481255,0.485020,0.488785,0.492549,0.503843,0.515137,0.526431,0.537726,0.549020,0.582902,0.616785,0.650667,0.684550,0.718432,0.697726,0.677020,0.656314,0.635608,0.614902,0.599843,0.584784,0.569726,0.554667,0.539608,0.535843,0.532079,0.528314,0.524549,0.520784,0.494432,0.468078,0.441726,0.415372,0.389020,0.370196,0.351372,0.332549,0.313725,0.294902,0.304314,0.313725,0.323137,0.332549,0.341961,0.375843,0.409726,0.443607,0.477491,0.511372,0.560313,0.609255,0.658195,0.707138,0.756078,0.773019,0.789961,0.806902,0.823843,0.840784,0.848313,0.855843,0.863372,0.870902,0.878431,0.872784,0.867137,0.861490,0.855843,0.850196,0.835138,0.820078,0.805020,0.789961,0.774902,0.765490,0.756079,0.746667,0.737255
0.113569,0.109804,0.100392,0.090980,0.081569,0.072157,0.062745,0.081569,0.100392,0.119216,0.138039,0.156863,0.151216,0.145569,0.139921,0.134274,0.128627,0.138039,0.147451,0.156862,0.166274,0.175686,0.173804,0.171921,0.170039,0.168157,0.166274,0.149333,0.132392,0.115451,0.098510,0.081568,0.074039,0.066509,0.058980,0.051451,0.043921,0.051451,0.058980,0.066509,0.074039,0.081568,0.081568,0.081568,0.081568,0.081568,0.081568,0.079686,0.077804,0.075921,0.074039,0.072157,0.068392,0.064627,0.060863,0.057098,0.053333,0.084078,0.114823,0.145567,0.176311,0.207056,0.358273,0.509490,0.660704,0.811921,0.963137,0.944314,0.925490,0.906667,0.887843,0.869020,0.857726,0.846431,0.835138,0.823843,0.812549,0.801255,0.789961,0.778667,0.767373,0.756079,0.737255,0.718432,0.699608,0.680785,0.661961,0.652549,0.643138,0.633726,0.624314,0.614902,0.614902,0.614902,0.614902,0.614902,0.614902,0.605491,0.596079,0.586667,0.577255,0.567844,0.541490,0.515137,0.488785,0.462432,0.436079,0.404079,0.372078,0.340079,0.308078,0.276078,0.262902,0.249725,0.236549,0.223373,0.210196,0.198902,0.187608,0.176314,0.165020,0.153726,0.144314,0.134902,0.125491,0.116079,0.106667,0.129882,0.153097,0.176312,0.199527,0.222742,0.372077,0.521411,0.670743,0.820078,0.969412,0.960000,0.950588,0.941177,0.931765,0.922353,0.905412,0.888471,0.871530,0.854588,0.837647,0.832000,0.826353,0.820706,0.815059,0.809412,0.809412,0.809412,0.809412,0.809412,0.809412,0.809412,0.809412,0.809412,0.809412,0.809412,0.807529,0.805647,0.803765,0.801882,0.800000,0.800000,0.800000,0.800000,0.800000,0.800000,0.809412,0.818824,0.828235,0.837647,0.847059,0.839529,0.832000,0.824471,0.816941,0.809412,0.811294,0.813176,0.815059,0.816941,0.818823,0.795608,0.772393,0.749178,0.725962,0.702747,0.712159,0.721571,0.730983,0.740395,0.749806,0.609886,0.469961,0.330041,0.190116,0.050196,0.048313,0.046431,0.044549,0.042666,0.040784,0.197645,0.354512,0.511373,0.668240,0.825101,0.681416,0.537726,0.394041,0.250351,0.106666,0.116078,0.125490,0.134901,0.144313,0.153725,0.140549,0.127372,0.114196,0.101019,0.087843,0.233410,0.378982,0.524549,0.670122,0.815689,0.726592,0.637491,0.548394,0.459293,0.370196,0.389019,0.407843,0.426666,0.445490,0.464314,0.449255,0.434196,0.419137,0.404078,0.389019,0.404078,0.419137,0.434196,0.449255,0.464314,0.466196,0.468078,0.469961,0.471843,0.473725,0.488784,0.503843,0.518902,0.533961,0.549020,0.575372,0.601725,0.628078,0.654431,0.680784,0.665725,0.650666,0.635608,0.620549,0.605490,0.588549,0.571608,0.554667,0.537725,0.520784,0.518902,0.517019,0.515137,0.513255,0.511372,0.488785,0.466196,0.443608,0.421019,0.398432,0.379608,0.360784,0.341961,0.323137,0.304314,0.313725,0.323137,0.332549,0.341961,0.351373,0.387137,0.422902,0.458667,0.494432,0.530196,0.582902,0.635609,0.688314,0.741021,0.793726,0.806902,0.820079,0.833255,0.846432,0.859608,0.863373,0.867137,0.870902,0.874667,0.878431,0.870902,0.863372,0.855843,0.848313,0.840784,0.823843,0.806902,0.789961,0.773019,0.756078,0.746667,0.737255,0.727843,0.718431
0.109804,0.109804,0.100392,0.090980,0.081569,0.072157,0.062745,0.081569,0.100392,0.119216,0.138039,0.156863,0.147451,0.138039,0.128627,0.119216,0.109804,0.119216,0.128627,0.138039,0.147451,0.156863,0.156863,0.156863,0.156863,0.156863,0.156863,0.138039,0.119216,0.100392,0.081569,0.062745,0.053333,0.043921,0.034510,0.025098,0.015686,0.025098,0.034510,0.043921,0.053333,0.062745,0.062745,0.062745,0.062745,0.062745,0.062745,0.062745,0.062745,0.062745,0.062745,0.062745,0.062745,0.062745,0.062745,0.062745,0.062745,0.053333,0.043921,0.034510,0.025098,0.015686,0.207060,0.398433,0.589802,0.781176,0.972549,0.953725,0.934902,0.916079,0.897255,0.878431,0.869020,0.859608,0.850196,0.840784,0.831373,0.821961,0.812549,0.803137,0.793726,0.784314,0.765490,0.746667,0.727843,0.709020,0.690196,0.680784,0.671372,0.661961,0.652549,0.643137,0.643137,0.643137,0.643137,0.643137,0.643137,0.633725,0.624314,0.614902,0.605490,0.596078,0.567843,0.539608,0.511373,0.483137,0.454902,0.417255,0.379608,0.341961,0.304314,0.266667,0.257255,0.247843,0.238431,0.229020,0.219608,0.210196,0.200784,0.191373,0.181961,0.172549,0.163137,0.153725,0.144314,0.134902,0.125490,0.106667,0.087843,0.069020,0.050196,0.031373,0.222746,0.414119,0.605489,0.796862,0.988235,0.978823,0.969412,0.960000,0.950588,0.941176,0.922353,0.903529,0.884706,0.865882,0.847059,0.837647,0.828235,0.818824,0.809412,0.800000,0.800000,0.800000,0.800000,0.800000,0.800000,0.800000,0.800000,0.800000,0.800000,0.800000,0.800000,0.800000,0.800000,0.800000,0.800000,0.800000,0.800000,0.800000,0.800000,0.800000,0.809412,0.818824,0.828235,0.837647,0.847059,0.837647,0.828235,0.818824,0.809412,0.800000,0.800000,0.800000,0.800000,0.800000,0.800000,0.809412,0.818824,0.828235,0.837647,0.847059,0.856470,0.865882,0.875294,0.884706,0.894118,0.721571,0.549018,0.376472,0.203919,0.031373,0.031373,0.031373,0.031373,0.031373,0.031373,0.222742,0.414119,0.605489,0.796866,0.988235,0.806277,0.624312,0.442354,0.260389,0.078431,0.087843,0.097255,0.106667,0.116079,0.125490,0.116079,0.106667,0.097255,0.087843,0.078431,0.260389,0.442354,0.624312,0.806277,0.988235,0.862747,0.737254,0.611766,0.486273,0.360784,0.379608,0.398432,0.417255,0.436079,0.454902,0.436079,0.417255,0.398432,0.379608,0.360784,0.379608,0.398432,0.417255,0.436079,0.454902,0.454902,0.454902,0.454902,0.454902,0.454902,0.473725,0.492549,0.511372,0.530196,0.549020,0.567843,0.586667,0.605490,0.624314,0.643137,0.633726,0.624314,0.614902,0.605490,0.596078,0.577255,0.558431,0.539608,0.520784,0.501961,0.501961,0.501961,0.501961,0.501961,0.501961,0.483138,0.464314,0.445490,0.426666,0.407843,0.389020,0.370196,0.351373,0.332549,0.313725,0.323137,0.332549,0.341961,0.351373,0.360784,0.398431,0.436079,0.473725,0.511373,0.549020,0.605489,0.661961,0.718431,0.774903,0.831373,0.840784,0.850196,0.859608,0.869020,0.878431,0.878431,0.878431,0.878431,0.878431,0.878431,0.869020,0.859608,0.850196,0.840784,0.831373,0.812549,0.793725,0.774902,0.756078,0.737255,0.727843,0.718431,0.709020,0.699608
0.230900,0.263527,0.257880,0.252233,0.246586,0.240939,0.235291,0.250350,0.265409,0.280468,0.295527,0.310586,0.266665,0.222744,0.178823,0.134902,0.090981,0.098510,0.106040,0.113569,0.121098,0.128628,0.130510,0.132393,0.134275,0.136157,0.138040,0.121098,0.104157,0.087216,0.070275,0.053333,0.082196,0.111058,0.139920,0.168782,0.197644,0.205174,0.212703,0.220233,0.227762,0.235291,0.237174,0.239056,0.240938,0.242821,0.244703,0.244703,0.244703,0.244703,0.244703,0.244703,0.244703,0.244703,0.244703,0.244703,0.244703,0.237174,0.229644,0.222115,0.214585,0.207056,0.360155,0.513254,0.666351,0.819450,0.972549,0.957490,0.942431,0.927372,0.912314,0.897255,0.887843,0.878431,0.869019,0.859608,0.850196,0.840784,0.831372,0.821961,0.812549,0.803137,0.786196,0.769254,0.752313,0.735372,0.718431,0.709019,0.699607,0.690196,0.680784,0.671372,0.669490,0.667607,0.665725,0.663843,0.661960,0.650666,0.639372,0.628078,0.616784,0.605490,0.575372,0.545255,0.515137,0.485020,0.454902,0.422902,0.390902,0.358902,0.326902,0.294902,0.287372,0.279843,0.272313,0.264784,0.257254,0.247843,0.238431,0.229019,0.219607,0.210196,0.200784,0.191372,0.181960,0.172548,0.163137,0.146195,0.129254,0.112313,0.095372,0.078431,0.227765,0.377100,0.526431,0.675766,0.825101,0.813806,0.802512,0.791218,0.779924,0.768630,0.786198,0.803766,0.821334,0.838902,0.856470,0.845176,0.833882,0.822588,0.811294,0.800000,0.800000,0.800000,0.800000,0.800000,0.800000,0.800000,0.800000,0.800000,0.800000,0.800000,0.800000,0.800000,0.800000,0.800000,0.800000,0.800000,0.800000,0.800000,0.800000,0.800000,0.807529,0.815059,0.822588,0.830118,0.837647,0.830118,0.822588,0.815059,0.807529,0.800000,0.798118,0.796235,0.794353,0.792471,0.790588,0.800000,0.809412,0.818824,0.828236,0.837647,0.848941,0.860235,0.871529,0.882824,0.894118,0.757962,0.621802,0.485646,0.349486,0.213331,0.213331,0.213331,0.213331,0.213331,0.213331,0.364545,0.515764,0.666978,0.818198,0.969412,0.825727,0.682037,0.538353,0.394662,0.250978,0.260389,0.269801,0.279213,0.288625,0.298037,0.252234,0.206430,0.160627,0.114822,0.069020,0.252860,0.436707,0.620548,0.804395,0.988235,0.858982,0.729725,0.600472,0.471214,0.341961,0.360784,0.379608,0.398432,0.417255,0.436079,0.422902,0.409726,0.396549,0.383372,0.370196,0.387137,0.404078,0.421019,0.437961,0.454902,0.449255,0.443608,0.437961,0.432314,0.426667,0.445490,0.464314,0.483138,0.501962,0.520785,0.541490,0.562197,0.582902,0.603608,0.624314,0.614902,0.605490,0.596079,0.586667,0.577255,0.560314,0.543373,0.526432,0.509490,0.492549,0.485020,0.477491,0.469961,0.462432,0.454903,0.436079,0.417255,0.398432,0.379608,0.360785,0.353256,0.345726,0.338196,0.330667,0.323137,0.340078,0.357019,0.373960,0.390902,0.407842,0.445489,0.483137,0.520783,0.558431,0.596078,0.646901,0.697725,0.748548,0.799373,0.850196,0.855843,0.861490,0.867137,0.872784,0.878431,0.876549,0.874667,0.872784,0.870902,0.869020,0.859608,0.850196,0.840785,0.831373,0.821961,0.803138,0.784314,0.765490,0.746667,0.727843,0.718432,0.709020,0.699608,0.690196
0.352001,0.417256,0.415374,0.413491,0.411609,0.409727,0.407844,0.419139,0.430433,0.441727,0.453021,0.464315,0.385883,0.307452,0.229020,0.150589,0.072157,0.077804,0.083451,0.089098,0.094745,0.100392,0.104157,0.107921,0.111686,0.115451,0.119216,0.104157,0.089098,0.074039,0.058980,0.043921,0.111059,0.178197,0.245334,0.312471,0.379609,0.385256,0.390903,0.396550,0.402197,0.407844,0.411609,0.415374,0.419139,0.422903,0.426668,0.426668,0.426668,0.426668,0.426668,0.426668,0.426668,0.426668,0.426668,0.426668,0.426668,0.421021,0.415374,0.409727,0.404080,0.398433,0.513257,0.628080,0.742902,0.857725,0.972549,0.961255,0.949961,0.938667,0.927373,0.916079,0.906667,0.897255,0.887843,0.878432,0.869020,0.859608,0.850196,0.840785,0.831373,0.821961,0.806902,0.791843,0.776785,0.761726,0.746667,0.737255,0.727843,0.718432,0.709020,0.699608,0.695843,0.692079,0.688314,0.684549,0.680784,0.667608,0.654431,0.641255,0.628079,0.614902,0.582902,0.550902,0.518902,0.486902,0.454902,0.428549,0.402196,0.375843,0.349490,0.323137,0.317490,0.311843,0.306196,0.300549,0.294902,0.285490,0.276079,0.266667,0.257255,0.247843,0.238432,0.229020,0.219608,0.210196,0.200785,0.185726,0.170667,0.155608,0.140549,0.125491,0.232785,0.340079,0.447371,0.554665,0.661960,0.648783,0.635606,0.622430,0.609254,0.596077,0.650038,0.704000,0.757960,0.811921,0.865882,0.852706,0.839529,0.826353,0.813177,0.800000,0.800000,0.800000,0.800000,0.800000,0.800000,0.800000,0.800000,0.800000,0.800000,0.800000,0.800000,0.800000,0.800000,0.800000,0.800000,0.800000,0.800000,0.800000,0.800000,0.800000,0.805647,0.811294,0.816941,0.822588,0.828235,0.822588,0.816941,0.811294,0.805647,0.800000,0.796235,0.792471,0.788706,0.784941,0.781176,0.790588,0.800000,0.809412,0.818824,0.828235,0.841412,0.854588,0.867765,0.880941,0.894118,0.794355,0.694588,0.594825,0.495058,0.395296,0.395296,0.395296,0.395296,0.395296,0.395296,0.506352,0.617413,0.728470,0.839531,0.950588,0.845178,0.739764,0.634354,0.528941,0.423531,0.432942,0.442354,0.451766,0.461178,0.470590,0.388394,0.306196,0.224001,0.141803,0.059608,0.245330,0.431060,0.616783,0.802513,0.988235,0.855218,0.722195,0.589177,0.456155,0.323137,0.341960,0.360784,0.379608,0.398432,0.417255,0.409726,0.402196,0.394667,0.387137,0.379608,0.394666,0.409726,0.424784,0.439843,0.454902,0.443608,0.432314,0.421020,0.409725,0.398431,0.417254,0.436078,0.454902,0.473726,0.492549,0.515137,0.537725,0.560313,0.582902,0.605490,0.596078,0.586666,0.577255,0.567843,0.558431,0.543373,0.528313,0.513255,0.498196,0.483137,0.468079,0.453019,0.437961,0.422901,0.407843,0.389020,0.370196,0.351372,0.332548,0.313725,0.317490,0.321255,0.325019,0.328784,0.332549,0.357019,0.381491,0.405961,0.430432,0.454902,0.492549,0.530197,0.567843,0.605491,0.643138,0.688313,0.733491,0.778667,0.823844,0.869020,0.870902,0.872784,0.874667,0.876549,0.878431,0.874667,0.870902,0.867137,0.863372,0.859608,0.850196,0.840784,0.831373,0.821961,0.812549,0.793726,0.774902,0.756079,0.737255,0.718431,0.709020,0.699608,0.690196,0.680784
0.473097,0.570979,0.572862,0.574744,0.576626,0.578509,0.580391,0.587920,0.595450,0.602979,0.610509,0.618038,0.505097,0.392156,0.279215,0.166275,0.053333,0.057098,0.060863,0.064628,0.068392,0.072157,0.077804,0.083451,0.089098,0.094745,0.100392,0.087216,0.074039,0.060863,0.047686,0.034510,0.139922,0.245334,0.350743,0.456155,0.561567,0.565332,0.569097,0.572861,0.576626,0.580391,0.586038,0.591685,0.597332,0.602979,0.608626,0.608626,0.608626,0.608626,0.608626,0.608626,0.608626,0.608626,0.608626,0.608626,0.608626,0.604861,0.601097,0.597332,0.593567,0.589802,0.666352,0.742902,0.819450,0.895999,0.972549,0.965020,0.957490,0.949961,0.942431,0.934902,0.925490,0.916078,0.906667,0.897255,0.887843,0.878431,0.869019,0.859608,0.850196,0.840784,0.827608,0.814431,0.801255,0.788078,0.774902,0.765490,0.756078,0.746667,0.737255,0.727843,0.722196,0.716549,0.710902,0.705255,0.699608,0.684549,0.669490,0.654431,0.639373,0.624314,0.590431,0.556549,0.522667,0.488784,0.454902,0.434196,0.413490,0.392784,0.372078,0.351372,0.347608,0.343843,0.340078,0.336313,0.332549,0.323137,0.313725,0.304314,0.294902,0.285490,0.276078,0.266666,0.257255,0.247843,0.238431,0.225255,0.212078,0.198902,0.185725,0.172549,0.237804,0.303060,0.368314,0.433569,0.498825,0.483766,0.468707,0.453648,0.438590,0.423531,0.513884,0.604237,0.694588,0.784941,0.875294,0.860235,0.845176,0.830118,0.815059,0.800000,0.800000,0.800000,0.800000,0.800000,0.800000,0.800000,0.800000,0.800000,0.800000,0.800000,0.800000,0.800000,0.800000,0.800000,0.800000,0.800000,0.800000,0.800000,0.800000,0.800000,0.803765,0.807529,0.811294,0.815059,0.818824,0.815059,0.811294,0.807529,0.803765,0.800000,0.794353,0.788706,0.783059,0.777412,0.771765,0.781176,0.790588,0.800000,0.809412,0.818824,0.833882,0.848941,0.864000,0.879059,0.894118,0.830746,0.767372,0.704000,0.640625,0.577254,0.577254,0.577254,0.577254,0.577254,0.577254,0.648155,0.719059,0.789960,0.860864,0.931765,0.864628,0.797489,0.730353,0.663214,0.596077,0.605489,0.614901,0.624312,0.633724,0.643136,0.524550,0.405959,0.287373,0.168782,0.050196,0.237801,0.425413,0.613018,0.800630,0.988235,0.851453,0.714666,0.577883,0.441096,0.304314,0.323137,0.341961,0.360784,0.379608,0.398432,0.396549,0.394667,0.392784,0.390902,0.389020,0.402196,0.415373,0.428549,0.441726,0.454902,0.437961,0.421020,0.404079,0.387137,0.370196,0.389020,0.407843,0.426667,0.445491,0.464314,0.488784,0.513255,0.537725,0.562197,0.586667,0.577255,0.567843,0.558432,0.549020,0.539608,0.526432,0.513255,0.500079,0.486902,0.473726,0.451138,0.428549,0.405961,0.383373,0.360785,0.341961,0.323137,0.304314,0.285490,0.266667,0.281726,0.296785,0.311843,0.326902,0.341961,0.373960,0.405961,0.437960,0.469961,0.501960,0.539607,0.577255,0.614901,0.652549,0.690196,0.729725,0.769255,0.808784,0.848314,0.887843,0.885961,0.884078,0.882196,0.880314,0.878431,0.872784,0.867137,0.861490,0.855843,0.850196,0.840785,0.831373,0.821961,0.812549,0.803137,0.784314,0.765490,0.746667,0.727843,0.709020,0.699608,0.690196,0.680784,0.671372
0.594197,0.724708,0.730355,0.736002,0.741650,0.747297,0.752944,0.756708,0.760473,0.764238,0.768002,0.771767,0.624315,0.476864,0.329412,0.181962,0.034510,0.036392,0.038274,0.040156,0.042039,0.043921,0.051451,0.058980,0.066509,0.074039,0.081568,0.070274,0.058980,0.047686,0.036392,0.025098,0.168785,0.312473,0.456157,0.599845,0.743532,0.745415,0.747297,0.749179,0.751061,0.752944,0.760473,0.768003,0.775532,0.783062,0.790591,0.790591,0.790591,0.790591,0.790591,0.790591,0.790591,0.790591,0.790591,0.790591,0.790591,0.788709,0.786826,0.784944,0.783062,0.781179,0.819453,0.857728,0.896001,0.934275,0.972549,0.968784,0.965020,0.961255,0.957490,0.953726,0.944314,0.934902,0.925491,0.916079,0.906667,0.897255,0.887843,0.878432,0.869020,0.859608,0.848314,0.837020,0.825726,0.814432,0.803138,0.793726,0.784314,0.774902,0.765491,0.756079,0.748549,0.741020,0.733491,0.725961,0.718432,0.701490,0.684549,0.667608,0.650667,0.633726,0.597961,0.562196,0.526432,0.490667,0.454902,0.439843,0.424784,0.409726,0.394667,0.379608,0.377726,0.375844,0.373961,0.372079,0.370197,0.360785,0.351373,0.341961,0.332550,0.323138,0.313726,0.304314,0.294903,0.285491,0.276079,0.264785,0.253491,0.242197,0.230903,0.219609,0.242824,0.266039,0.289254,0.312469,0.335684,0.318743,0.301801,0.284860,0.267919,0.250978,0.377724,0.504470,0.631214,0.757960,0.884706,0.867765,0.850823,0.833883,0.816941,0.800000,0.800000,0.800000,0.800000,0.800000,0.800000,0.800000,0.800000,0.800000,0.800000,0.800000,0.800000,0.800000,0.800000,0.800000,0.800000,0.800000,0.800000,0.800000,0.800000,0.800000,0.801882,0.803765,0.805647,0.807529,0.809412,0.807529,0.805647,0.803765,0.801882,0.800000,0.792471,0.784941,0.777412,0.769882,0.762353,0.771764,0.781176,0.790588,0.800000,0.809412,0.826353,0.843294,0.860235,0.877177,0.894118,0.867138,0.840158,0.813178,0.786198,0.759218,0.759218,0.759218,0.759218,0.759218,0.759218,0.789962,0.820708,0.851452,0.882197,0.912941,0.884079,0.855216,0.826355,0.797492,0.768630,0.778042,0.787454,0.796865,0.806277,0.815689,0.660710,0.505726,0.350747,0.195763,0.040784,0.230272,0.419766,0.609253,0.798748,0.988235,0.847688,0.707136,0.566589,0.426037,0.285490,0.304313,0.323137,0.341960,0.360784,0.379608,0.383372,0.387137,0.390902,0.394667,0.398432,0.409725,0.421020,0.432314,0.443608,0.454902,0.432314,0.409725,0.387137,0.364548,0.341960,0.360784,0.379608,0.398431,0.417255,0.436078,0.462431,0.488784,0.515137,0.541490,0.567843,0.558431,0.549019,0.539608,0.530196,0.520784,0.509490,0.498196,0.486902,0.475607,0.464314,0.434196,0.404078,0.373961,0.343842,0.313725,0.294902,0.276078,0.257254,0.238430,0.219607,0.245960,0.272314,0.298666,0.325020,0.351373,0.390902,0.430432,0.469961,0.509491,0.549020,0.586667,0.624315,0.661961,0.699609,0.737256,0.771137,0.805020,0.838902,0.872785,0.906667,0.901020,0.895373,0.889726,0.884078,0.878431,0.870902,0.863372,0.855843,0.848313,0.840784,0.831373,0.821961,0.812549,0.803137,0.793725,0.774902,0.756078,0.737255,0.718431,0.699608,0.690196,0.680784,0.671372,0.661960
